# .PCD v0.7 - Point Cloud Data file format
VERSION 0.7
FIELDS x y z normal_x normal_y normal_z curvature
SIZE 4 4 4 4 4 4 4
TYPE F F F F F F F
COUNT 1 1 1 1 1 1 1
WIDTH 597
HEIGHT 1
VIEWPOINT 0 0 0 1 0 0 0
POINTS 597
DATA ascii
0.73416096 -0.36784795 1.7898 -0.58391774 -0.16165458 -0.79555506 0.019449536
0.75093305 -0.37384501 1.7819651 -0.67392498 -0.22737189 -0.70294178 0.030776719
0.51912785 -0.31598434 1.8825231 -0.0075815381 0.32818767 -0.9445821 0.063300438
0.52748013 -0.30128494 1.8966831 -0.083292224 0.5464918 -0.83331215 0.076548487
0.52659035 -0.2581729 1.8868999 -0.022876693 -0.16199481 -0.98652637 0.081559598
0.52679908 -0.27375749 1.8986489 -0.1962076 -0.15223871 -0.96867228 0.14186868
0.57437634 -0.31613904 1.8857 0.011109834 0.38591558 -0.92246723 0.045029875
0.55956244 -0.30230674 1.8986924 0.1350266 0.56530571 -0.81375504 0.056379527
0.55712444 -0.27546307 1.9105544 0.24933344 0.085681424 -0.96461987 0.12270624
0.63627243 -0.33485278 1.85144 -0.44809377 0.34515372 -0.82467014 0.0055830642
0.60010862 -0.32500592 1.8779857 -0.26047775 0.51473916 -0.81682003 0.0066059059
0.62211561 -0.32765478 1.8626095 -0.44115004 0.35696775 -0.82338369 0.0051463279
0.59167194 -0.31439033 1.8809428 -0.31933731 0.38657087 -0.86520898 0.013640893
0.58106524 -0.30481979 1.8920715 -0.050543655 0.682886 -0.72877437 0.026756339
0.61307764 -0.31649357 1.87016 -0.44115004 0.35696775 -0.82338369 0.0051463279
0.57139212 -0.35092047 1.9787999 -0.12095287 0.73075843 -0.67183518 0.015667176
0.57110935 -0.26844725 1.9266572 0.41168633 0.42874116 -0.80417371 0.067065418
0.58144456 -0.35068402 1.9774667 -0.16068795 0.70976543 -0.68586618 0.0083294651
0.58167088 -0.26818815 1.94028 0.48898527 0.53716052 -0.68727869 0.028291319
0.59745032 -0.26200771 1.9607249 0.52201748 0.52028078 -0.67587399 0.01967191
0.60993272 -0.25957513 1.9646 0.24832942 0.74930775 -0.61389774 0.022781961
0.73930228 -0.45495689 1.7960875 -0.26740503 0.79590839 -0.54316145 0.087648533
0.74310774 -0.43672198 1.8070818 -0.59066576 0.50021684 -0.63316435 0.14995493
0.7549144 -0.40723708 1.8022667 -0.8197487 -0.24746643 -0.51650017 0.092894524
0.75987434 -0.41259772 1.8393778 -0.9237265 -0.30902779 -0.22634311 0.169599
0.65591067 -0.33782962 1.8370678 -0.38192064 0.44887513 -0.80786616 0.0035128512
0.69199771 -0.35507047 1.8147333 -0.28018668 0.51675868 -0.80898446 0.0015722084
0.68959999 -0.34788328 1.8188968 -0.28018668 0.51675868 -0.80898446 0.0015722084
0.67809564 -0.34104815 1.8264 -0.2769058 0.52336854 -0.80585891 0.0017176341
0.64045775 -0.32587361 1.8559999 -0.47795495 -0.82216972 -0.30918601 0.017879732
0.68816304 -0.3825115 1.910275 -0.11596926 0.78558946 -0.60778314 0.024311241
0.71963859 -0.35966605 1.801632 -0.6714111 -0.54968488 -0.49704498 0.033591293
0.70953149 -0.34894332 1.8124 -0.31532937 0.44833019 -0.83640146 0.00087388727
0.73629397 -0.35943165 1.795 -0.77098513 -0.5237518 -0.36230651 0.051827095
0.67595053 -0.38064954 1.9220999 -0.14302883 0.77100879 -0.62055475 0.0098152459
0.52708191 -0.16706422 1.5617793 0.0088189719 -0.057768982 -0.99829102 0.0033167449
0.52796942 -0.14471941 1.558862 -0.010976636 0.28270441 -0.95914429 0.014551595
0.55612546 -0.16560182 1.5629749 0.077665575 -0.065871738 -0.99480098 0.0025345236
0.56021476 -0.14407293 1.5604677 0.035111155 0.28029597 -0.95927125 0.012530218
0.58191425 -0.16293095 1.56576 0.13509473 -0.064698815 -0.98871809 0.0017537965
0.59129268 -0.14305213 1.5643408 0.068230547 0.28675038 -0.95557249 0.0094021494
0.61168361 -0.13931687 1.56696 0.090773813 0.29870245 -0.95001948 0.0054505188
0.62476987 -0.13645746 1.5698615 0.090773813 0.29870245 -0.95001948 0.0054505188
0.52765208 -0.12432932 1.5642694 -0.0072594131 0.47621822 -0.87929714 0.0091100968
0.52739161 -0.10715721 1.5757242 -0.019673174 0.57127351 -0.82052398 0.012081225
0.52726227 -0.088864274 1.5921 -0.028487721 0.6988315 -0.71471882 0.0025826092
0.55850708 -0.12419379 1.5645951 0.037765358 0.45279518 -0.89081442 0.0098951198
0.55932075 -0.10734593 1.5753281 0.017627148 0.54716271 -0.83684063 0.012930963
0.55960846 -0.087603346 1.5918647 -0.0079948939 0.68480718 -0.72868049 0.0030416285
0.52761585 -0.072837107 1.6112 -0.036365371 0.76213551 -0.64639539 0.0022548803
0.55881107 -0.071518503 1.6101633 -0.015353187 0.74928808 -0.66206622 0.0033399919
0.52806222 -0.060767241 1.6277478 -0.040819459 0.79920757 -0.59966737 0.00054317457
0.52741438 -0.047039177 1.6474901 -0.045489542 0.82131743 -0.56865484 0.00015666707
0.56005257 -0.059283331 1.6257758 -0.037064537 0.79219109 -0.60914654 0.0007780756
0.55985433 -0.045038834 1.6473744 -0.051337227 0.81632525 -0.57530648 0.00023315335
0.58574295 -0.12491944 1.5664133 0.054177735 0.43525442 -0.89867592 0.0087973485
0.59228516 -0.10968817 1.5758361 0.028112611 0.52677882 -0.84953737 0.011556519
0.5922038 -0.087849185 1.5920844 0.014065672 0.66274953 -0.74870902 0.0034491869
0.62355328 -0.11135075 1.5772105 0.024461137 0.50696683 -0.8616184 0.0093767736
0.62356293 -0.087336302 1.5925739 0.025820928 0.62664652 -0.77887571 0.0049514393
0.59083915 -0.071985133 1.6084986 0.00025027146 0.72371805 -0.69009572 0.0048576654
0.62368685 -0.071365021 1.6084116 -0.0026330943 0.68784553 -0.72585231 0.0068353591
0.59199685 -0.059147846 1.6244457 -0.030272851 0.7789312 -0.62637824 0.0010471058
0.59189218 -0.043896664 1.6461521 -0.052869022 0.80801219 -0.58678889 0.0004210686
0.60149896 -0.031253289 1.66255 -0.063273013 0.81548196 -0.57531357 0.00020711659
0.62435472 -0.057500929 1.6244426 -0.040593285 0.758214 -0.65074092 0.0014137265
0.62361526 -0.04236332 1.6443924 -0.065547265 0.79427558 -0.60401142 0.0006932182
0.62629682 -0.030354263 1.6605412 -0.077857941 0.80340713 -0.59031779 0.00033661732
0.52804601 -0.034257412 1.6662182 -0.045826294 0.83243328 -0.55222714 9.5102536e-05
0.52769983 -0.024204427 1.6814597 -0.046892434 0.83188426 -0.55296445 8.7082051e-05
0.52821654 -0.0080143465 1.7065854 -0.052361879 0.8344577 -0.54857868 9.4686569e-05
0.55389237 -0.034223557 1.6645714 -0.060445443 0.82786125 -0.55766666 0.00016103804
0.55993843 -0.0229045 1.6800182 -0.062802598 0.82725519 -0.55830514 0.00013871663
0.55974495 -0.0066803414 1.7054311 -0.070321031 0.83072591 -0.55222225 9.5504322e-05
0.59143597 -0.020752199 1.679046 -0.073883981 0.82295227 -0.56328559 0.0001415913
0.59126151 -0.0051846299 1.7029823 -0.080514759 0.82940233 -0.55281925 7.6099015e-05
0.62381947 -0.017640661 1.6787953 -0.091736287 0.81689608 -0.56944293 0.00017797328
0.62097561 -0.0038308988 1.7000347 -0.096725762 0.82744193 -0.55315822 0.00013381247
0.64898175 -0.13246845 1.574824 0.14299051 0.30717701 -0.94084853 0.0026759526
0.65523058 -0.11195312 1.580645 0.058966633 0.49616197 -0.8662253 0.006722122
0.65525287 -0.08745642 1.5928757 0.045757618 0.59181589 -0.80477339 0.0060088458
0.68558961 -0.10824581 1.5882267 0.11988048 0.46413583 -0.87761414 0.0045399261
0.68642074 -0.089218117 1.5953462 0.079221755 0.56261635 -0.82291359 0.0055074417
0.6557368 -0.07257738 1.60625 0.011836256 0.65024221 -0.75963479 0.007730348
0.68845403 -0.074216098 1.6060724 0.04681199 0.62048244 -0.78282195 0.0069358656
0.65579253 -0.056800127 1.622056 -0.020946799 0.73283237 -0.68008667 0.0022770215
0.65467823 -0.040234391 1.6427112 -0.050728567 0.77658445 -0.62796754 0.0014800635
0.6564588 -0.028238127 1.6577152 -0.067928404 0.79221714 -0.6064468 0.00067845505
0.68698114 -0.056154288 1.6221013 0.036465835 0.7063216 -0.70695126 0.0031583493
0.68687904 -0.039501663 1.6407564 0.022166351 0.75445354 -0.6559791 0.0033987507
0.68725407 -0.02685418 1.6566622 -0.010286963 0.78443575 -0.62012482 0.0012724563
0.70924801 -0.10281049 1.5957143 0.16347365 0.44247979 -0.88175279 0.0047408096
0.70928401 -0.092601098 1.5981112 0.10674283 0.53804106 -0.83613265 0.0065478603
0.718804 -0.077139467 1.6091959 0.075928926 0.59999275 -0.79639405 0.0077850381
0.73655099 -0.070334964 1.6185501 0.085655428 0.60686821 -0.79017347 0.0075634504
0.7184099 -0.05642559 1.6251755 0.075529665 0.68687665 -0.72283864 0.0037422641
0.71740037 -0.041748855 1.6400286 0.080448098 0.73878658 -0.66912073 0.003567507
0.71352136 -0.027491707 1.6568583 0.04139106 0.77694201 -0.62821007 0.00094908662
0.73648489 -0.049431086 1.6342 0.13086261 0.71998608 -0.6815387 0.0051249661
0.65553296 -0.013186054 1.6795393 -0.084236242 0.81496125 -0.57336062 0.00037329306
0.64692718 -0.0020073461 1.6973 -0.090294413 0.82980335 -0.55070257 0.00030338785
0.68713242 -0.010825692 1.6782805 -0.023011597 0.81318754 -0.5815466 0.0008879269
0.71575522 -0.011538681 1.6790206 0.034423076 0.81175232 -0.58298653 0.00073105097
0.52611029 -0.23918058 1.8803481 -0.059667259 -0.51545513 -0.85483676 0.041809238
0.52838194 -0.25290295 1.88974 -0.18735968 -0.65250421 -0.73425788 0.082280539
0.52329242 -0.22291605 1.87274 -0.36346251 -0.45354024 -0.81375444 0.048701763
0.54446644 -0.23001732 1.8741333 0.23564228 -0.45147783 -0.8606047 0.017937046
0.54385841 -0.255943 1.895 0.4699102 -0.37569109 -0.79877442 0.034052931
0.61654156 -0.25331509 1.9697555 0.24832942 0.74930775 -0.61389774 0.022781961
0.77678967 -0.43844229 1.7808273 0.19508429 0.39427975 -0.89804542 0.11768802
0.7943064 -0.43974406 1.8023833 0.29539913 0.722767 -0.62477779 0.13931817
0.44048074 -0.21840911 2.175 -0.27498624 0.42725688 -0.86129791 0.041222014
0.44805402 -0.22092274 2.1745999 -0.23653476 0.43974233 -0.86641675 0.049293455
0.48253277 -0.25071827 2.15432 -0.21787407 0.76022232 -0.61203998 0.011815909
0.43136808 -0.23727164 2.1858387 -0.24582078 0.70569313 -0.66450685 0.024565838
0.42726904 -0.21919605 2.1898699 -0.26896665 0.69869846 -0.66293091 0.03444875
0.41938984 -0.2127175 2.2199819 -0.21769594 0.82362002 -0.52369696 0.0210528
0.45841536 -0.23826297 2.1814389 -0.16287759 0.67359209 -0.72093314 0.034369692
0.45250455 -0.22122753 2.1775999 -0.21087357 0.60641193 -0.76667911 0.053493585
0.67481285 -0.28789735 2.0774002 -0.029979255 0.80075043 -0.59824741 0.0045833299
0.69267249 -0.28315365 2.0838134 -0.0077915206 0.7747463 -0.6322242 0.0048025576
0.76333559 -0.27315536 2.0723629 -0.26105282 0.65170723 -0.71212995 0.068533055
0.75044698 -0.27213013 2.0950665 -0.31273213 0.56371146 -0.76447886 0.093901895
0.76050353 -0.24724826 2.0648999 -0.4668093 -0.26312941 -0.84430563 0.10015379
0.75188351 -0.25254086 2.0952666 -0.4668093 -0.26312941 -0.84430563 0.10015379
0.78221983 -0.27379462 2.0691726 -0.023002092 0.70384932 -0.70997679 0.075182915
0.77615815 -0.24964593 2.0609908 -0.16448843 -0.87386876 -0.45748979 0.12565713
0.805188 -0.25631192 2.0883999 0.3342467 0.74302554 -0.57982081 0.038170006
0.21299018 0.077735595 1.6230603 -0.036133163 0.70855242 -0.70473248 0.020741146
0.21096012 0.092017055 1.6359867 -0.09713231 0.73318034 -0.67306155 0.013717859
0.21074016 0.10415083 1.6510983 -0.097909845 0.73872375 -0.66685897 0.012267955
0.22638853 0.081077509 1.6245111 -0.036133163 0.70855242 -0.70473248 0.020741146
0.23011692 0.091036469 1.63906 -0.09713231 0.73318034 -0.67306155 0.013717859
0.23168801 0.10766779 1.652117 -0.097909845 0.73872375 -0.66685897 0.012267955
0.20836668 0.11882216 1.6704341 -0.12359536 0.76083297 -0.63706934 0.0084019601
0.2336193 0.12271447 1.6689059 -0.12359536 0.76083297 -0.63706934 0.0084019601
0.21502645 0.12949774 1.6824727 -0.14571378 0.7690556 -0.62235117 0.0074862861
0.22995242 0.1302643 1.6808 -0.14571378 0.7690556 -0.62235117 0.0074862861
0.2545737 0.24303809 1.7842 -0.70478201 -0.32264635 -0.63180822 0.003285089
0.25369853 0.20538539 1.8078001 -0.73359734 -0.35202166 -0.58130515 0.0052984105
0.25267375 0.25371811 1.793 -0.75374675 -0.34064323 -0.56198579 0.0050717806
0.25404495 0.28605768 1.7588 -0.67987275 -0.30906731 -0.66501915 0.0024611373
0.25487387 0.26687813 1.7753999 -0.69398016 -0.31071895 -0.6494962 0.0030742974
0.25347596 0.30136582 1.7549 -0.65767378 -0.30382761 -0.68931413 0.0038336241
0.25212353 0.29970032 1.7616 -0.69939756 -0.31414291 -0.64199477 0.0046082963
0.25268692 0.37150729 1.7240334 -0.70000178 -0.24424092 -0.67107666 0.0095627559
0.25125888 0.33146369 1.7410429 -0.64536572 -0.29029888 -0.7065618 0.0038163171
0.25211805 0.35748577 1.72965 -0.72281879 -0.25253421 -0.64324141 0.010435374
0.25028586 0.40223068 1.7158917 -0.68729734 -0.26729792 -0.67540669 0.013296533
0.25221732 0.44015607 1.6934222 -0.56198603 -0.29295927 -0.77352864 0.009193345
0.24863757 0.42980045 1.7026523 -0.6525988 -0.29428026 -0.69822198 0.016028311
0.2411042 0.40269059 1.7373687 -0.77387446 -0.29557705 -0.5601362 0.012799497
0.24166182 0.41806424 1.7366 -0.8452757 -0.28871182 -0.44961596 0.0094344243
0.25024694 0.46504381 1.6871077 -0.48604172 -0.2306782 -0.84294188 0.023878088
0.24466011 0.45309258 1.6984445 -0.51418793 -0.239565 -0.82354075 0.028178962
0.24720378 0.48553061 1.6816307 -0.44329008 -0.11118717 -0.88945562 0.05063187
0.24216034 0.48532084 1.6971999 -0.44329008 -0.11118717 -0.88945562 0.05063187
0.31614453 0.0022553361 1.7564399 -0.59637129 0.67355764 -0.43664789 0.01115647
0.30992806 0.009748227 1.7788267 -0.57984883 0.68878001 -0.43515214 0.012177325
0.37406704 0.00099976617 1.727 -0.11010993 0.84264427 -0.5270924 0.0026443277
0.33776286 0.0070106941 1.7481509 -0.40107432 0.78625357 -0.47004756 0.017819002
0.33387974 0.021548377 1.7741356 -0.40212637 0.78158301 -0.47688824 0.017384999
0.3432751 0.03253711 1.78828 -0.29760796 0.83420622 -0.46425155 0.007853562
0.36771804 0.0099340389 1.743609 -0.11041579 0.8428638 -0.52667725 0.0021740631
0.36634555 0.025187392 1.7692389 -0.1103357 0.85553432 -0.50585282 0.0016432201
0.36903509 0.034631211 1.785624 -0.10400353 0.85874695 -0.50173396 0.0015012521
0.27911004 0.18011935 1.7879767 -0.42769775 -0.47206232 -0.77086431 0.012862814
0.31224582 0.158768 1.7908 -0.038738869 -0.53548759 -0.84365416 0.010271271
0.30400449 0.17693113 1.7815812 -0.13160987 -0.49425864 -0.85929459 0.020804936
0.28509581 0.22106972 1.7594 -0.38427642 -0.41927901 -0.82251853 0.011811783
0.27466977 0.20836544 1.7763693 -0.43974495 -0.4180721 -0.79488367 0.015088492
0.28029102 0.24248041 1.7539654 -0.41451111 -0.38280684 -0.82561463 0.012369161
0.26548794 0.23761457 1.7690974 -0.45264989 -0.39450237 -0.79967242 0.014592928
0.30476853 0.21824534 1.7580571 -0.11463372 -0.42672476 -0.89708698 0.02086311
0.30225271 0.2033789 1.764695 -0.15141062 -0.44372064 -0.88328183 0.024714286
0.3032822 0.23810962 1.7499678 -0.11894885 -0.40862566 -0.90491784 0.026225436
0.32180852 0.1588212 1.7914 0.16165823 -0.53573877 -0.8287645 0.0064627128
0.33365944 0.17692733 1.7843364 0.19346435 -0.49655631 -0.84616983 0.0051394063
0.35806486 0.18542269 1.7884842 0.30672449 -0.46120265 -0.83259368 0.0011906514
0.32443711 0.22020075 1.7586501 0.21521573 -0.42425609 -0.87959588 0.0042453595
0.33573383 0.20584492 1.7693108 0.21921922 -0.42959288 -0.87600964 0.0036755812
0.33308953 0.24134149 1.7539483 0.24991442 -0.37487781 -0.89275384 0.0026714122
0.34517357 0.22990374 1.7618001 0.2501317 -0.37499174 -0.89264512 0.0026806763
0.36698765 0.20846391 1.7806277 0.31620485 -0.40770131 -0.85661787 0.00055572332
0.35594958 0.25180373 1.7575999 0.30576164 -0.3624604 -0.88041598 0.00079408725
0.3685559 0.23907712 1.7664021 0.30940402 -0.36691135 -0.87729424 0.0007692622
0.41198769 0.00099959248 1.7267001 -0.028077465 0.84807456 -0.52913249 0.00015464061
0.43135813 0.00099871354 1.7251818 -0.030555218 0.84635073 -0.53174883 0.00012472791
0.39958262 0.010474346 1.7436761 -0.033914119 0.84947801 -0.52653295 0.00014118574
0.39907619 0.025848052 1.7679501 -0.045779813 0.8554998 -0.51577538 0.00021289138
0.39962578 0.035620052 1.7846067 -0.045779813 0.8554998 -0.51577538 0.00021289138
0.43173435 0.011929415 1.7434094 -0.040657669 0.84463298 -0.53379965 0.00010411491
0.43114239 0.025909612 1.7656194 -0.052852336 0.84774363 -0.52776641 0.00010515296
0.43248159 0.036424544 1.7822324 -0.052852336 0.84774363 -0.52776641 0.00010515296
0.46636459 0.0016499048 1.7239 -0.028025692 0.84188169 -0.53893387 7.5820055e-05
0.49561945 0.0025912491 1.7244096 -0.033220403 0.83820373 -0.54434443 9.424465e-05
0.4629589 0.013713868 1.7437 -0.036458377 0.83981401 -0.54164863 0.00010280413
0.46384355 0.027528889 1.7651809 -0.04905602 0.84129095 -0.53835213 0.00016829048
0.46373436 0.037253201 1.7801048 -0.049102016 0.84127355 -0.5383752 0.00016166508
0.49545315 0.014810973 1.7441548 -0.036718391 0.83674484 -0.54636049 8.1821745e-05
0.49595612 0.027348649 1.7631143 -0.040144201 0.83905613 -0.54256177 0.00011044096
0.4953354 0.038537901 1.7792538 -0.039473351 0.83963734 -0.54171115 0.00011153399
0.3949517 0.21571785 1.7883588 0.27583364 -0.42091992 -0.86414248 0.0011524376
0.3996191 0.23897645 1.7786326 0.26173019 -0.38783967 -0.88378602 0.0010120983
0.4162977 0.22188529 1.791 0.19174108 -0.43272123 -0.88090163 0.0010681514
0.43081862 0.24163723 1.7853143 0.19151077 -0.3999351 -0.89631218 0.00047679056
0.46076912 0.24675195 1.788326 0.16450085 -0.40387812 -0.89990109 0.00032863591
0.48866782 0.25231734 1.7905333 0.15516762 -0.40817618 -0.89961946 0.00055987522
0.30315912 0.018010385 1.8039958 -0.57723796 0.71538109 -0.39373374 0.015268705
0.30074257 0.026795898 1.8262 -0.44055358 0.80689877 -0.39348051 0.0098445155
0.31438944 0.034963507 1.81598 -0.32742918 0.66369402 -0.6725328 0.051913559
0.31139687 0.040340357 1.8394941 -0.44010618 0.65431696 -0.61496007 0.11802264
0.28378469 0.023441482 1.9137125 -0.6982851 -0.38880187 -0.60102499 0.012783364
0.28301543 0.06002339 1.88475 -0.77055359 -0.32734406 -0.54689395 0.042487774
0.27774236 0.047126275 1.9054943 -0.58047986 -0.51697987 -0.62910646 0.017206872
0.28861851 0.029631319 1.9053 -0.55882579 -0.47723007 -0.67820734 0.029778253
0.30346125 0.052214179 1.8726096 -0.47432604 -0.48144349 -0.73703933 0.098941088
0.29034317 0.042654842 1.8947091 -0.24125771 -0.66501826 -0.70678532 0.040717494
0.28569034 0.091742605 1.85156 -0.79801929 -0.33877403 -0.49839476 0.055626158
0.28410861 0.11084079 1.8359524 -0.26614606 -0.61889386 -0.73901057 0.0018377803
0.30479783 0.088327445 1.8466923 -0.65780973 -0.28891709 -0.69556689 0.15602435
0.30599219 0.12191857 1.8195355 -0.0063725458 -0.62103611 -0.78375608 0.0062513454
0.30181894 0.10768902 1.8314389 -0.022940595 -0.64069563 -0.76745218 0.0051810443
0.28240347 0.073577821 1.871296 -0.65994555 -0.46223229 -0.59229487 0.028758215
0.27597114 0.064270519 1.8875999 -0.56304348 -0.54717267 -0.61934167 0.019936109
0.30186814 0.071660712 1.8639634 -0.31237096 -0.57202226 -0.75842923 0.069519192
0.32251289 0.029502831 1.7953334 -0.40309423 0.79052383 -0.4610717 0.017916776
0.33640182 0.039904386 1.8066245 -0.19887865 0.73124892 -0.65247399 0.044737242
0.33565927 0.052308742 1.8400333 -0.22527111 0.76820862 -0.59925658 0.084877662
0.3680715 0.046611797 1.8069192 -0.06909889 0.83324337 -0.54857165 0.019717449
0.36571774 0.059171833 1.8356867 -0.067279562 0.84697014 -0.52736616 0.034376916
0.33262584 0.059916243 1.86076 -0.11714389 -0.24327764 -0.96285683 0.15747628
0.35304993 0.063201383 1.8562 -0.019469455 0.762227 -0.64701694 0.068403773
0.33327392 0.089925051 1.8485157 -0.22672676 -0.098143086 -0.969001 0.21448283
0.33132881 0.12301814 1.82012 0.1419711 -0.60728681 -0.78169489 0.0066949967
0.33690128 0.10859087 1.8329098 0.13288768 -0.62090093 -0.77254313 0.0061040958
0.36900297 0.073785059 1.852 0.13633463 0.50047851 -0.85494685 0.17714722
0.36666125 0.11251005 1.8402044 0.2450307 -0.56292474 -0.7893514 0.019713182
0.33618018 0.074271016 1.8625863 0.042748842 -0.49753502 -0.86638987 0.08347898
0.36723918 0.079866812 1.8646001 0.24142033 -0.29914427 -0.92316246 0.11178201
0.37758517 0.098056965 1.858375 0.21466494 -0.52834839 -0.82144201 0.033219729
0.28088352 0.021418201 1.9212 -0.7357145 -0.39662874 -0.54900801 0.011147369
0.27184132 0.035025112 1.9250333 -0.73473948 -0.40387398 -0.54501718 0.011498878
0.28337377 0.14862119 1.8068334 -0.26919985 -0.55400234 -0.78778988 0.0034182277
0.28116259 0.13924626 1.8243001 -0.30165505 -0.57484406 -0.76063037 0.0047952421
0.27453625 0.17518792 1.7938222 -0.44186607 -0.47759447 -0.75937992 0.013339455
0.30277455 0.14322551 1.8031261 -0.038840089 -0.57057154 -0.82032889 0.0075325291
0.29051504 0.16289699 1.79285 -0.13223109 -0.48773018 -0.86292189 0.021646362
0.25998047 0.20516965 1.7975929 -0.49038643 -0.42941993 -0.75836647 0.018239615
0.255972 0.22541724 1.794 -0.56559014 -0.4058159 -0.71792847 0.020389203
0.33546811 0.14413206 1.8047515 0.16401142 -0.57019114 -0.80497348 0.0048622214
0.3452135 0.16481981 1.7932923 0.1991642 -0.50107157 -0.84217632 0.0052595348
0.36534029 0.14614595 1.8140959 0.29243088 -0.5458526 -0.78519368 0.0011669963
0.37382886 0.13364033 1.82682 0.30924529 -0.56293827 -0.76646453 0.0010577389
0.36978301 0.17326033 1.7983404 0.3139309 -0.47123238 -0.82424963 0.0011720289
0.38038939 0.19366336 1.7926 0.32237777 -0.4149788 -0.85080266 0.00047387145
0.40023699 0.049469046 1.8075382 -0.063769318 0.87055629 -0.48791921 0.0017196564
0.39761406 0.061131641 1.8287412 -0.044656273 0.87763041 -0.47725326 0.0088563664
0.43070659 0.050995812 1.806362 -0.06800276 0.86206198 -0.50221986 0.00046889478
0.4323763 0.062160853 1.82564 -0.060391732 0.88824719 -0.45537871 0.0029015497
0.40074626 0.068280429 1.8448319 0.11891914 0.68440819 -0.71933556 0.11845854
0.39621973 0.11874808 1.8476546 0.24644123 -0.49073172 -0.8357327 0.053677969
0.432289 0.06957452 1.8406813 0.013539316 0.75259078 -0.65834934 0.074514709
0.421707 0.12449656 1.85356 0.17175035 -0.36531609 -0.91490215 0.11177635
0.39900315 0.083495319 1.8710812 0.27102634 0.06338422 -0.96048278 0.14355302
0.40188596 0.10415529 1.8634681 0.21615501 -0.46093029 -0.86070919 0.066922948
0.43126059 0.085260235 1.8753299 0.11895302 0.57301074 -0.81086922 0.12890391
0.43194336 0.11055642 1.8686721 0.18866482 -0.3651301 -0.91163898 0.11862436
0.46299472 0.053757578 1.8063213 -0.064206079 0.8540867 -0.51615262 0.00039152682
0.49506709 0.055046391 1.8045812 -0.045895819 0.84977102 -0.5251503 0.00026681088
0.46401405 0.071621455 1.8375041 -0.045461811 0.7765938 -0.62835914 0.047993995
0.49548292 0.06522502 1.8214 -0.045711715 0.85198247 -0.52157104 0.00028199088
0.49625728 0.074727803 1.8380554 -0.033294871 0.78523916 -0.6182968 0.032002095
0.4632968 0.086522974 1.8742666 0.020487914 0.71425849 -0.69958204 0.096246041
0.45880169 0.09422107 1.8880857 0.15697654 -0.27401206 -0.94882864 0.066757567
0.46267697 0.11404879 1.8737351 0.17505516 -0.23665658 -0.95569313 0.15813273
0.4682447 0.099230289 1.8884751 0.14349154 -0.41921419 -0.89647627 0.057036702
0.49483693 0.089216456 1.8732487 0.0026362285 0.77426785 -0.63285255 0.069649667
0.49460661 0.11811943 1.8768421 0.1758447 0.0089057516 -0.98437762 0.18518467
0.49713796 0.10244598 1.8900294 0.11791066 -0.43206072 -0.89410323 0.064018652
0.39173919 0.15379149 1.8196599 0.27884233 -0.54616058 -0.78990859 0.0012396234
0.4018065 0.14074276 1.8329026 0.29056373 -0.56805295 -0.76999259 0.0014431028
0.39922401 0.17612897 1.8087469 0.27922016 -0.48552039 -0.8284359 0.0016756902
0.41424701 0.16167597 1.8236001 0.28751731 -0.50102168 -0.81627882 0.0016083544
0.43135273 0.1438363 1.8396451 0.22010767 -0.58924788 -0.7773928 0.0016147577
0.4300943 0.17900777 1.8164479 0.20372546 -0.50990105 -0.83576125 0.0012703994
0.43555886 0.16527554 1.8263478 0.21100324 -0.51693654 -0.82961088 0.0012237559
0.40248522 0.20307267 1.7960953 0.27794471 -0.42353323 -0.86218697 0.0011587793
0.43166205 0.20714681 1.8007472 0.1982616 -0.44437239 -0.87362778 0.0011935236
0.43912446 0.22684751 1.79282 0.19159698 -0.40010417 -0.8962183 0.00048711098
0.46208516 0.14647037 1.8448 0.1636149 -0.60381913 -0.7801491 0.001459838
0.46109986 0.18462078 1.81945 0.16210215 -0.51824725 -0.83972776 0.00067200721
0.46566677 0.16926505 1.8301742 0.16799036 -0.527641 -0.83269095 0.00089421653
0.49466783 0.15024719 1.8480422 0.14497733 -0.60571831 -0.78235984 0.0013955667
0.48767635 0.18963328 1.82215 0.15299799 -0.51440859 -0.84378636 0.00060335069
0.49604493 0.17408033 1.8319937 0.15902431 -0.53444761 -0.83010662 0.0010110961
0.46651503 0.13088879 1.85857 0.17411503 -0.62202352 -0.76339418 0.0013040785
0.49638709 0.13511506 1.8612325 0.14807302 -0.6150803 -0.77443564 0.001730712
0.46329862 0.20778681 1.8060731 0.16265465 -0.4579092 -0.87399238 0.00076757668
0.46566215 0.23272602 1.7949686 0.16450085 -0.40387812 -0.89990109 0.00032863591
0.49490681 0.20783754 1.81291 0.15546343 -0.46690151 -0.87053668 0.00055736839
0.49613881 0.23789757 1.7978543 0.15689619 -0.41016239 -0.89841551 0.0005748517
0.27991968 0.30877304 1.7235628 -0.35558122 -0.32613105 -0.87589985 0.017637506
0.30420783 0.28701442 1.7272667 -0.039019506 -0.35406572 -0.93440622 0.024126874
0.3032434 0.30472791 1.7228017 -0.033889364 -0.34310982 -0.93868375 0.025295498
0.27372822 0.27285704 1.7456938 -0.40493017 -0.368976 -0.83659327 0.015349345
0.25868776 0.26446679 1.7649474 -0.44863889 -0.37825584 -0.8097195 0.017100865
0.26644787 0.30085015 1.7387356 -0.37879887 -0.33678851 -0.86202371 0.018675253
0.30325544 0.27055705 1.7346443 -0.098590836 -0.40220118 -0.91022748 0.026910851
0.31496304 0.29016349 1.7279 -0.052439403 -0.35985476 -0.93153352 0.027194764
0.27451685 0.33690402 1.7173789 -0.3308531 -0.33893517 -0.88071513 0.019606479
0.28275225 0.38188589 1.6949714 -0.27377322 -0.30276772 -0.91289645 0.022528032
0.27098683 0.36721766 1.7079282 -0.39532948 -0.29470518 -0.86997902 0.032430697
0.30331495 0.33604261 1.7135891 0.0030798514 -0.34478787 -0.93867558 0.023877716
0.29192784 0.38193271 1.6948 0.079651415 -0.31316647 -0.94635218 0.017918469
0.3036401 0.36674958 1.7022574 0.057320785 -0.33662838 -0.93989128 0.019928079
0.25957853 0.33194518 1.7317935 -0.33658198 -0.33821973 -0.87881738 0.0204685
0.32691342 0.31163594 1.7256191 0.2821117 -0.30002415 -0.91126204 0.0014853333
0.33579281 0.27173507 1.7439189 0.26510128 -0.33957112 -0.90244824 0.0021474541
0.33783346 0.30091035 1.7332506 0.2820937 -0.30000788 -0.91127294 0.0014445496
0.36606368 0.2729553 1.7536696 0.30433646 -0.32857507 -0.89410162 0.00060142152
0.37838104 0.25945789 1.76122 0.30390415 -0.32821056 -0.89438254 0.00063112105
0.36742985 0.30324015 1.7441266 0.29907441 -0.29743648 -0.90668958 0.00046875488
0.33360168 0.3361403 1.7218653 0.29567519 -0.28036106 -0.91322172 0.001074808
0.33561954 0.36742598 1.7134793 0.31484473 -0.26560068 -0.91122395 0.0011241719
0.35594031 0.3469128 1.7263 0.29885173 -0.27618039 -0.91346157 0.00060011842
0.36499047 0.36923385 1.7234113 0.30426243 -0.24820946 -0.9196828 0.0008510286
0.34795937 0.32552519 1.7290727 0.29567817 -0.28035715 -0.91322196 0.0010891615
0.36903676 0.33454046 1.7340572 0.29885668 -0.27621871 -0.91344833 0.0005873146
0.37874162 0.36082739 1.72961 0.30426243 -0.24820946 -0.9196828 0.0008510286
0.27682886 0.40223902 1.6915094 -0.26280212 -0.30847782 -0.91420811 0.02527675
0.26253873 0.39550087 1.7016561 -0.35872206 -0.31116635 -0.8800534 0.039511908
0.27144805 0.43247056 1.6834955 -0.20866799 -0.30737588 -0.92842758 0.029222852
0.2576679 0.42010334 1.69704 -0.29752794 -0.34489158 -0.89023983 0.043646537
0.30169797 0.40169722 1.6914372 0.11551793 -0.30016881 -0.9468655 0.017846892
0.31366646 0.38867271 1.6972933 0.11551793 -0.30016881 -0.9468655 0.017846892
0.30336148 0.43147299 1.6845033 0.17709172 -0.25863308 -0.94960386 0.014838732
0.27070239 0.46315983 1.673264 -0.076145545 -0.14978366 -0.98578227 0.050173875
0.27219385 0.48806447 1.6735729 -0.019779183 0.12749361 -0.99164218 0.062892854
0.30281141 0.46338344 1.6773381 0.24527544 -0.095442764 -0.96474379 0.01807861
0.30442211 0.49388811 1.6842096 0.27183506 0.13536941 -0.9527753 0.011730921
0.33517948 0.39890459 1.7039045 0.33728424 -0.23816542 -0.91077799 0.00077673618
0.32713217 0.43415582 1.6929234 0.35552499 -0.19494443 -0.91411084 0.00079787511
0.34233284 0.42991182 1.6996523 0.35552499 -0.19494443 -0.91411084 0.00079787511
0.36751312 0.39953035 1.7172775 0.31779221 -0.21884254 -0.9225595 0.00092390104
0.36781088 0.43134123 1.7091019 0.33108675 -0.18808095 -0.92466593 0.00069126789
0.33278874 0.46425042 1.6901705 0.34304538 -0.062867068 -0.93721265 0.0060137482
0.34813619 0.4588902 1.6969 0.34304538 -0.062867068 -0.93721265 0.0060137482
0.3340953 0.49123552 1.6913205 0.32188049 0.10588025 -0.94084126 0.0064457539
0.33978507 0.50626206 1.69724 0.32188049 0.10588025 -0.94084126 0.0064457539
0.36727935 0.46342739 1.7034982 0.31491083 -0.10378277 -0.94343007 0.0028074563
0.36699 0.49531901 1.7017134 0.27670908 0.047351077 -0.95978642 0.0057847342
0.3886466 0.28140825 1.7580462 0.25006956 -0.3460584 -0.9042725 0.0013225158
0.40082082 0.26985872 1.7650404 0.25023469 -0.34628236 -0.90414107 0.0012885933
0.39874145 0.30508998 1.7529757 0.24113743 -0.30381873 -0.9217087 0.00077390432
0.4095245 0.2918269 1.7603778 0.24061202 -0.30334491 -0.92200202 0.00079425884
0.4312619 0.27242154 1.7715755 0.18320805 -0.37236893 -0.90982205 0.0007635678
0.4296951 0.31098017 1.7568793 0.18022507 -0.31552717 -0.9316445 0.00093298563
0.43349087 0.29552865 1.762468 0.18022507 -0.31552717 -0.9316445 0.00093298563
0.39972082 0.33595213 1.7435776 0.23411106 -0.2878862 -0.92860842 0.000802155
0.39942899 0.36739251 1.7333072 0.23430298 -0.25247216 -0.93880773 0.0010727467
0.43163618 0.33546841 1.750785 0.1749893 -0.28854769 -0.94133896 0.0004713239
0.43174624 0.36750057 1.7402103 0.17860474 -0.26215646 -0.94835347 0.00063634943
0.46383879 0.2706565 1.7787664 0.1617541 -0.37929246 -0.91102844 0.00026375006
0.45394129 0.3144491 1.75875 0.16115263 -0.32714969 -0.93112993 0.00085549336
0.46462703 0.30116314 1.7655313 0.1614688 -0.32745597 -0.93096745 0.00085432257
0.49516883 0.27137685 1.7836272 0.15471968 -0.37863982 -0.91252053 0.00028610657
0.49569467 0.30360749 1.7711037 0.14909504 -0.34135056 -0.9280358 0.00079538458
0.46285266 0.33589819 1.7553903 0.16301188 -0.28506777 -0.94454408 0.00044515601
0.47430137 0.32223803 1.7606 0.16301188 -0.28506777 -0.94454408 0.00044515601
0.46341467 0.3667815 1.7461739 0.16073728 -0.26432765 -0.95094395 0.00036209158
0.49163243 0.34412652 1.757439 0.14810587 -0.2880705 -0.9460867 0.0007574709
0.49792218 0.33078903 1.7623492 0.14810587 -0.2880705 -0.9460867 0.0007574709
0.49524143 0.36815259 1.7514491 0.13633843 -0.25994408 -0.95595026 0.00038171498
0.39575422 0.40374118 1.7248179 0.23776634 -0.20967796 -0.94842094 0.0011660784
0.3993277 0.43126133 1.7203357 0.25134751 -0.18406583 -0.95023376 0.001159433
0.41893482 0.41401938 1.72715 0.17995846 -0.2058637 -0.96189141 0.0005652968
0.42775878 0.43423882 1.7256759 0.18655856 -0.16922475 -0.96775973 0.00046215783
0.40622395 0.39278078 1.7296791 0.23776634 -0.20967796 -0.94842094 0.0011660784
0.43199238 0.39941725 1.7323238 0.17995846 -0.2058637 -0.96189141 0.0005652968
0.44042552 0.4251492 1.7287313 0.18655856 -0.16922475 -0.96775973 0.00046215783
0.39979786 0.46310186 1.713991 0.25352666 -0.13397303 -0.95800596 0.0014826829
0.39914301 0.4951829 1.7101431 0.22384745 -0.0097026154 -0.97457588 0.0050636143
0.43202001 0.46350798 1.7217178 0.19368498 -0.14417292 -0.97041243 0.00047423379
0.43075424 0.49558717 1.7167339 0.17414139 -0.062108457 -0.98276007 0.003390691
0.46365401 0.39902392 1.7380818 0.16238607 -0.21510997 -0.96299452 0.00056402019
0.46354085 0.43118 1.7319449 0.15817805 -0.16176799 -0.97406924 0.00034739752
0.49562687 0.40013966 1.7429509 0.12931558 -0.22991158 -0.96458185 0.00075675501
0.49571526 0.43214777 1.7364842 0.11063807 -0.17712134 -0.97795051 0.00096729951
0.45569986 0.46716997 1.7261289 0.15754822 -0.14085501 -0.97741413 0.00024479514
0.46277353 0.49600998 1.7227496 0.14883706 -0.097903319 -0.98400331 0.0014439687
0.4923799 0.50143057 1.7260318 0.092140794 -0.11088584 -0.98955262 0.0011769076
0.46962401 0.46113905 1.7288123 0.15754822 -0.14085501 -0.97741413 0.00024479514
0.47762775 0.48189646 1.7278 0.14883706 -0.097903319 -0.98400331 0.0014439687
0.49525139 0.46372068 1.7320077 0.097551189 -0.14234124 -0.98499882 0.00068228983
0.49897274 0.48755932 1.7294192 0.092140794 -0.11088584 -0.98955262 0.0011769076
0.50810432 0.25679064 1.7924 0.15465331 -0.37858742 -0.91255349 0.00029206209
0.31391108 0.51382637 1.6975334 0.22496131 0.35470057 -0.90751302 0.0026451042
0.33710232 0.51915663 1.701468 0.23510532 0.26106647 -0.93625307 0.0038129941
0.36902401 0.52459973 1.708243 0.21877515 0.1696239 -0.9609189 0.0035604041
0.39942765 0.52790672 1.7133157 0.18739672 0.10009538 -0.97717112 0.0037758567
0.40999955 0.54749948 1.71995 0.12116281 0.2452825 -0.96185035 0.00089397468
0.43096113 0.52701229 1.7167979 0.15387835 0.039280593 -0.98730868 0.0038276236
0.43339923 0.54737335 1.7216616 0.10845637 0.19527079 -0.97473407 0.0012812043
0.46360472 0.52683848 1.7203578 0.13860574 -0.01224892 -0.99027187 0.0029907937
0.46305358 0.54780096 1.7244734 0.11392134 0.12519571 -0.98556989 0.0015940197
0.49687651 0.52710623 1.7249533 0.090431765 -0.044284139 -0.99491757 0.00282632
0.49195933 0.54702169 1.72633 0.081804663 0.074796513 -0.99383777 0.002311243
0.5005455 0.55100816 1.7281834 0.081804663 0.074796513 -0.99383777 0.002311243
0.5275901 0.002515571 1.7221637 -0.052980233 0.83446258 -0.54851186 0.00010086077
0.56017447 0.0043802965 1.7209142 -0.070480302 0.83076012 -0.55215049 9.5077623e-05
0.52721757 0.016272703 1.7430027 -0.052087452 0.83508641 -0.5476473 0.00010898159
0.52745801 0.028958946 1.7622364 -0.049203306 0.8389532 -0.54197466 0.00015514746
0.52738184 0.03862498 1.7776769 -0.048404302 0.8401221 -0.54023314 0.00014856055
0.55977273 0.019342804 1.7437667 -0.071187824 0.83531845 -0.54513794 0.00011622955
0.54856157 0.028926579 1.7602667 -0.069709733 0.84203464 -0.53490019 8.0831436e-05
0.55998248 0.039619051 1.7759246 -0.069646314 0.84285194 -0.53361976 7.0633236e-05
0.59181643 0.0058749449 1.7183087 -0.079941124 0.82991379 -0.55213445 7.4857751e-05
0.62378174 0.0071078567 1.7159793 -0.095335007 0.82930225 -0.55060786 0.00013583708
0.59138352 0.021217983 1.7420125 -0.078808606 0.83712816 -0.5413 0.00012543578
0.59888047 0.031984963 1.7579334 -0.076368622 0.84109646 -0.53546667 8.8308654e-05
0.59110856 0.04249543 1.7757797 -0.076830067 0.84328294 -0.53195024 6.046666e-05
0.62347186 0.022471616 1.7393699 -0.092439078 0.84023833 -0.53427953 0.00019475885
0.62522417 0.033148047 1.7556555 -0.089905962 0.84319454 -0.53003758 0.00016910891
0.6237008 0.045483436 1.7763151 -0.079154037 0.84734344 -0.52511305 0.00016581902
0.65580225 0.0095470939 1.71236 -0.086777799 0.83331406 -0.54594624 0.00032995571
0.68905497 0.00098088104 1.6943778 -0.03020785 0.82483131 -0.56457138 0.00079796941
0.68691063 0.011115134 1.7117031 -0.034267966 0.83549833 -0.54842341 0.00065427599
0.65388858 0.02478214 1.7366616 -0.082107052 0.84442079 -0.52935052 0.00033681394
0.65644795 0.034669802 1.7524999 -0.079368941 0.84620595 -0.5269118 0.00032748419
0.65560699 0.048398197 1.7752862 -0.07021784 0.8505249 -0.52122629 0.0002801324
0.68736017 0.025348537 1.7338313 -0.035517178 0.84799737 -0.52880907 0.00046267745
0.68642485 0.034841251 1.7508897 -0.033858232 0.84876448 -0.527686 0.00045165842
0.68276626 0.048722986 1.7730666 -0.043045253 0.85714048 -0.51328093 0.00031350256
0.70439023 0.00098147278 1.6954 0.021667998 0.82520527 -0.56441718 0.00051784323
0.71450925 0.010130269 1.7114809 0.016569894 0.83905846 -0.54378891 0.00044238594
0.7133764 0.025612647 1.7344421 0.010146348 0.85163116 -0.52404332 0.00026219379
0.70515692 0.031755105 1.7453001 0.010146348 0.85163116 -0.52404332 0.00026219379
0.7635662 0.15319094 1.6618444 -0.4568218 0.635409 -0.62255061 0.054398548
0.73142517 0.17913 1.7138343 -0.92978966 0.095176421 -0.35557359 0.089787938
0.75177276 0.1537489 1.6770653 -0.61942488 0.49151844 -0.61214578 0.11718928
0.75136906 0.14778318 1.7084358 -0.88529944 -0.061785337 -0.46089849 0.19185622
0.75269443 0.16868778 1.6824861 -0.48126158 0.58916324 -0.6490562 0.078470081
0.74558985 0.18116722 1.7029642 -0.6098156 0.47250995 -0.63628554 0.098143548
0.72599894 0.18984908 1.7291 -0.84542328 0.11833048 -0.52082378 0.12621899
0.76302016 0.13580225 1.7356182 -0.16342929 -0.35214549 -0.92156631 0.13962257
0.72975737 0.19729048 1.7226737 -0.43243212 0.65079713 -0.62407172 0.01023219
0.75249201 0.20124197 1.7182138 -0.32781664 0.69640535 -0.63840103 0.012046748
0.72748202 0.20862596 1.7419209 -0.46048528 0.65954876 -0.59409487 0.013960811
0.72168064 0.22028814 1.7676166 -0.60630709 0.50596601 -0.61350644 0.044382986
0.73365986 0.2235702 1.7546999 0.21041475 0.78542727 -0.58209074 0.047280584
0.72179139 0.22891027 1.779 -0.77811712 -0.29953799 -0.55209672 0.060818698
0.74690264 0.21596925 1.736841 -0.35361895 0.70216328 -0.61799711 0.016989158
0.74245572 0.22574642 1.7536 -0.25270671 0.80395687 -0.538324 0.012891167
0.73862231 0.22836202 1.7678667 -0.41506547 0.77131706 -0.48248386 0.0079913717
0.52777129 0.054945491 1.8034196 -0.045359362 0.84697109 -0.52970034 0.00022125601
0.55870813 0.056005549 1.8019067 -0.066271596 0.84645844 -0.52831447 0.00016971595
0.52870572 0.065498792 1.8208909 -0.044082481 0.84827858 -0.52771223 0.00022920161
0.52732843 0.075761929 1.836784 -0.023785496 0.79586381 -0.60500824 0.023039311
0.55966091 0.066663377 1.8188952 -0.066194899 0.84654593 -0.52818388 0.00017849596
0.55955976 0.078666717 1.8379384 -0.035036117 0.80823821 -0.58781242 0.018667586
0.52878433 0.090096653 1.8712267 -0.0035487767 0.8040033 -0.59461427 0.051836558
0.52699053 0.12062516 1.8801333 0.12590127 0.20379998 -0.97088331 0.18827651
0.52754378 0.10530783 1.8915921 0.10644982 -0.44169247 -0.89082897 0.062443972
0.55972022 0.091679007 1.87005 -0.036457613 0.81935614 -0.57212442 0.040406086
0.55852485 0.11677339 1.8828857 0.014723879 0.32743791 -0.944758 0.18120117
0.55999452 0.10874879 1.8925855 0.025096903 -0.42239931 -0.90606236 0.064298786
0.59071589 0.057934307 1.8000667 -0.072901741 0.84713858 -0.52634734 0.0002121335
0.62189692 0.059151795 1.7978348 -0.066228211 0.85365695 -0.51660788 0.0003463047
0.5921728 0.068146862 1.81646 -0.072817177 0.8471911 -0.52627462 0.00021507578
0.5921151 0.080723189 1.8371391 -0.053552374 0.82286185 -0.56571239 0.016493618
0.62391412 0.069559932 1.8137268 -0.066228211 0.85365695 -0.51660788 0.0003463047
0.62305892 0.083401039 1.8377523 -0.042402636 0.83485913 -0.54882807 0.016169645
0.59031421 0.091684803 1.8648947 -0.054875452 0.82673866 -0.5599035 0.034052655
0.59180307 0.11354616 1.8818692 -0.052603669 0.34218928 -0.93815744 0.17384604
0.59120107 0.11074838 1.8910917 -0.023011055 -0.41726297 -0.90849441 0.059089217
0.62415761 0.092868425 1.86098 -0.028221009 0.83174795 -0.55443573 0.032309022
0.62433392 0.11220494 1.8802912 -0.022562688 0.32726008 -0.9446649 0.17306578
0.62317103 0.11221127 1.8896667 0.0089026932 -0.40691245 -0.91342378 0.056656212
0.52439898 0.15352182 1.8515778 0.1129786 -0.59761995 -0.79377973 0.0025479076
0.52746481 0.17585056 1.8368019 0.12348969 -0.54299462 -0.83060652 0.0015125342
0.557603 0.15728042 1.8538333 0.040828701 -0.57785183 -0.8151198 0.0052193473
0.55941468 0.17617428 1.8399 0.054057952 -0.55458778 -0.83036751 0.0016422403
0.52893525 0.13931197 1.8644438 0.11140268 -0.60704845 -0.78681737 0.0028980358
0.55988419 0.14210027 1.8661765 0.039360248 -0.59436607 -0.80323082 0.0051005241
0.52669495 0.21083388 1.8171605 0.11214978 -0.47675413 -0.87185317 0.00060982129
0.53050959 0.19641611 1.8255301 0.1128288 -0.4773441 -0.87144262 0.00061275117
0.5273577 0.23919417 1.8023174 0.10753058 -0.42247912 -0.89997143 0.0011450183
0.55923563 0.21409528 1.8182414 0.042622443 -0.48902982 -0.87122506 0.00061724649
0.55945569 0.19908383 1.826425 0.042622443 -0.48902982 -0.87122506 0.00061724649
0.55954874 0.23940235 1.8043327 0.032824341 -0.43031731 -0.90208066 0.0010939495
0.59273732 0.15791416 1.85488 -0.020501118 -0.56111282 -0.82748544 0.0082485443
0.5914551 0.17613029 1.8407582 -0.011395664 -0.56592023 -0.82438123 0.001504224
0.62692332 0.15689941 1.8539286 -0.011424633 -0.55548668 -0.83144695 0.010221372
0.62325209 0.1759606 1.8390018 -0.018790286 -0.57401651 -0.81862807 0.0013348856
0.59153169 0.14244035 1.8665518 -0.021861328 -0.58330595 -0.81195831 0.007744574
0.6230796 0.14193112 1.8664706 -0.012285539 -0.57707894 -0.81659597 0.0095425108
0.59187412 0.2144241 1.8184916 -0.01930934 -0.49649253 -0.86782622 0.00070104474
0.5909574 0.19934402 1.8265116 -0.01930934 -0.49649253 -0.86782622 0.00070104474
0.59162128 0.23949353 1.8043785 -0.020865127 -0.42996243 -0.90260565 0.0010417331
0.62370789 0.21188703 1.8176162 -0.031174133 -0.5043335 -0.86294609 0.00066487404
0.62283444 0.19687682 1.82555 -0.031174133 -0.5043335 -0.86294609 0.00066487404
0.62335932 0.23921351 1.8026875 -0.035895981 -0.42992431 -0.90215105 0.0010676041
0.65232617 0.060301233 1.79576 -0.059592355 0.8575834 -0.51088107 0.00042703593
0.67803955 0.061134629 1.7955 -0.053752769 0.86571002 -0.49765128 0.00036140168
0.65583956 0.069635428 1.8116 -0.059592355 0.8575834 -0.51088107 0.00042703593
0.65428257 0.082845464 1.8356857 -0.058898743 0.83543313 -0.54642695 0.017208936
0.67558831 0.067430831 1.8064858 -0.053752769 0.86571002 -0.49765128 0.00036140168
0.65409166 0.0929318 1.86225 -0.0013924383 0.83437234 -0.55119944 0.042366713
0.65450138 0.11309291 1.8817893 0.19987215 0.1668417 -0.96551281 0.20624372
0.65776211 0.11152139 1.8900722 0.077701107 -0.45714992 -0.88598901 0.057161711
0.68013847 0.12270688 1.883953 0.92166805 -0.1299271 -0.36557749 0.16499603
0.68034595 0.11110314 1.8924479 0.20287018 -0.48776528 -0.8490752 0.065855742
0.65420997 0.15745458 1.85332 0.046250559 -0.56524354 -0.82362652 0.012004139
0.65547508 0.17597319 1.8394259 0.021550382 -0.58213842 -0.81280404 0.0015114491
0.67760241 0.15791161 1.8548501 0.10780784 -0.57391262 -0.81178921 0.012040177
0.67924303 0.17646834 1.8414333 0.061110809 -0.5843327 -0.80921 0.0013324885
0.65572691 0.14228185 1.8665576 0.045041386 -0.58409047 -0.81043792 0.010576451
0.68037248 0.14224392 1.868713 0.11108942 -0.58641821 -0.80235457 0.0098448182
0.65540302 0.21224388 1.8166 0.020076156 -0.50598276 -0.86230993 0.001098228
0.65510231 0.19711313 1.8256143 0.020076156 -0.50598276 -0.86230993 0.001098228
0.65523553 0.23916477 1.8014697 0.00087274943 -0.43184716 -0.90194637 0.0014869407
0.67894506 0.21297687 1.81738 -0.16101657 -0.51451135 -0.8422302 0.027462203
0.67976636 0.19778843 1.8275111 0.020319376 -0.51488125 -0.85702068 0.0026251008
0.68685102 0.23950401 1.8040755 -0.19810228 -0.43203852 -0.87982851 0.032995991
0.71344781 0.23729335 1.8005081 -0.50106907 -0.39439467 -0.77031332 0.053576712
0.52632219 0.27656361 1.7868333 0.10297745 -0.37726155 -0.92036372 0.00073261739
0.52782142 0.30438092 1.7757744 0.09596803 -0.35192153 -0.93109685 0.00090538501
0.559412 0.27992031 1.7880644 0.028786356 -0.38011688 -0.92449039 0.00054143136
0.559816 0.30484432 1.7776518 0.026316116 -0.36171144 -0.93191862 0.00052126811
0.51719064 0.35114768 1.7589333 0.088910952 -0.29907659 -0.95007789 0.0011828238
0.52741724 0.33593926 1.7640245 0.088910952 -0.29907659 -0.95007789 0.0011828238
0.52636784 0.36834919 1.7554621 0.077589363 -0.26399127 -0.96139926 0.00069876795
0.54117984 0.35392863 1.76044 0.077589363 -0.26399127 -0.96139926 0.00069876795
0.55947244 0.33545297 1.7658485 0.021688512 -0.30938849 -0.95068836 0.0010321004
0.55958056 0.37012538 1.7565978 0.009235627 -0.27489057 -0.96143115 0.00058488123
0.55802864 0.35384935 1.7608167 0.009235627 -0.27489057 -0.96143115 0.00058488123
0.59184331 0.27930552 1.7879323 -0.016279193 -0.37661353 -0.92622745 0.00039173145
0.59175199 0.30459562 1.7776793 -0.0093622776 -0.3591159 -0.93324602 0.00029532926
0.62277675 0.27743512 1.7876158 -0.034434028 -0.37429675 -0.92666942 0.00040131574
0.62341958 0.30464101 1.7769557 -0.022933515 -0.35193977 -0.93574166 0.00037304085
0.59193921 0.33566937 1.7657582 -0.0081671821 -0.3117725 -0.9501217 0.00066849054
0.59212887 0.36849335 1.756355 -0.018555444 -0.28850159 -0.95729959 0.00038481326
0.58491045 0.35366359 1.7604429 -0.018555444 -0.28850159 -0.95729959 0.00038481326
0.62387002 0.3359262 1.7655942 -0.024774907 -0.31474102 -0.94885421 0.0004903946
0.62425172 0.37054256 1.7556064 -0.026564945 -0.30295521 -0.95263445 0.0003483569
0.62259769 0.35401171 1.7605727 -0.026564945 -0.30295521 -0.95263445 0.0003483569
0.52796519 0.40001547 1.7467475 0.061981507 -0.25159422 -0.96584606 0.0010211166
0.52789342 0.43232134 1.738741 0.040497832 -0.20292029 -0.97835743 0.0013774097
0.55996007 0.3992213 1.7479134 -0.0061925449 -0.27142033 -0.96244097 0.00064352405
0.55951631 0.43204945 1.7386639 -0.019879261 -0.22332987 -0.97454017 0.00098976668
0.52004588 0.5069263 1.7272909 0.0026033858 -0.11917028 -0.99287039 0.0012828771
0.5657934 0.50362766 1.7255429 -0.059557658 -0.13254583 -0.9893859 0.0011523144
0.52759349 0.46367386 1.7333945 0.017372565 -0.15469773 -0.98780912 0.00081113586
0.52833813 0.49275151 1.7295635 0.0026033858 -0.11917028 -0.99287039 0.0012828771
0.55971855 0.46341631 1.7329614 -0.041694444 -0.17252371 -0.98412251 0.00056765811
0.55659276 0.49095812 1.7290425 -0.059557658 -0.13254583 -0.9893859 0.0011523144
0.59141827 0.39935693 1.7464905 -0.028378172 -0.28435594 -0.95829868 0.00040944701
0.59137601 0.43224129 1.737193 -0.046073295 -0.23782697 -0.97021419 0.00073883787
0.62323821 0.39983436 1.7452673 -0.040023953 -0.29300806 -0.9552719 0.00041778092
0.62352765 0.43240538 1.7364763 -0.058324624 -0.25340033 -0.96560162 0.00070494507
0.5923177 0.49786013 1.7240491 -0.093183629 -0.14994977 -0.98429257 0.0019039403
0.62773341 0.47270101 1.725625 -0.087674327 -0.23680773 -0.96759254 0.00094291457
0.62340826 0.49483255 1.7205155 -0.10665808 -0.16270567 -0.9808929 0.0026616291
0.59138095 0.46437821 1.7310734 -0.072244279 -0.203467 -0.97641277 0.00092531135
0.58562613 0.48396742 1.72795 -0.093183629 -0.14994977 -0.98429257 0.0019039403
0.62175572 0.4596042 1.7301174 -0.087674327 -0.23680773 -0.96759254 0.00094291457
0.65547538 0.27654144 1.786739 -0.0027918471 -0.37944978 -0.92520815 0.00090359431
0.65540856 0.30441332 1.7754604 -0.012002815 -0.34541732 -0.93837243 0.00068151712
0.67778319 0.27708155 1.78622 -0.13002734 -0.37960884 -0.91596401 0.01919453
0.67854303 0.30503592 1.7756 0.0068020625 -0.34153408 -0.93984479 0.0010568213
0.65534496 0.33686495 1.7649239 -0.017808909 -0.31332082 -0.94948035 0.00059655111
0.65521204 0.36865905 1.754007 -0.013783385 -0.31078824 -0.95037925 0.0005969007
0.67214841 0.35124087 1.7594 0.01126604 -0.31582782 -0.94874966 0.00060259999
0.6793018 0.33582217 1.766408 0.01126604 -0.31582782 -0.94874966 0.00060259999
0.67782032 0.3704502 1.7541463 0.028084876 -0.31519878 -0.94861001 0.00054091314
0.68156749 0.35424098 1.7606223 0.028084876 -0.31519878 -0.94861001 0.00054091314
0.65525746 0.40022698 1.7436887 -0.03054182 -0.29804981 -0.95406157 0.00079862081
0.65512204 0.43182766 1.7340535 -0.044700585 -0.26906398 -0.96208441 0.0010040089
0.6777209 0.40001291 1.7452714 0.026555566 -0.29905632 -0.95386589 0.00067657378
0.67629623 0.43165034 1.735775 0.027090384 -0.27985355 -0.95966041 0.00058071775
0.65561068 0.46789908 1.7241555 -0.076485611 -0.26215383 -0.9619903 0.0011523039
0.65539169 0.4952305 1.7162859 -0.10087319 -0.17245167 -0.97983927 0.004381665
0.67457867 0.46944198 1.7242154 0.0084604658 -0.27173296 -0.96233553 0.00076717988
0.67357522 0.49285549 1.7172533 -0.036181055 -0.17738554 -0.98347616 0.0053922599
0.65427238 0.45252162 1.7285372 -0.076485611 -0.26215383 -0.9619903 0.0011523039
0.6745618 0.45425102 1.7294222 0.0084604658 -0.27173296 -0.96233553 0.00076717988
0.53070444 0.26104504 1.79344 0.10297745 -0.37726155 -0.92036372 0.00073261739
0.55991411 0.26334003 1.7940227 0.028786356 -0.38011688 -0.92449039 0.00054143136
0.59135342 0.26298648 1.7939022 -0.016279193 -0.37661353 -0.92622745 0.00039173145
0.62477475 0.26119936 1.7937778 -0.034434028 -0.37429675 -0.92666942 0.00040131574
0.65471327 0.26030323 1.7934515 -0.0027918471 -0.37944978 -0.92520815 0.00090359431
0.68039286 0.26099688 1.7942001 -0.10804632 -0.37865376 -0.91921014 0.015590742
0.77319282 0.15517651 1.66116 -0.4568218 0.635409 -0.62255061 0.054398548
0.77178609 0.15923212 1.6638 -0.67096418 0.50237459 -0.54536855 0.14116514
0.77470034 0.1718142 1.6772749 -0.56000876 0.57674277 -0.59477556 0.089123741
0.77513814 0.18740402 1.7025846 -0.87320936 0.29089236 -0.39100772 0.11455299
