# .PCD v0.7 - Point Cloud Data file format
VERSION 0.7
FIELDS x y z normal_x normal_y normal_z curvature
SIZE 4 4 4 4 4 4 4
TYPE F F F F F F F
COUNT 1 1 1 1 1 1 1
WIDTH 584
HEIGHT 1
VIEWPOINT 0 0 0 1 0 0 0
POINTS 584
DATA ascii
-0.19536754 0.82502222 2.5271001 -0.55211222 -0.17389806 -0.81543338 0.0028745944
-0.21022236 0.81535333 2.5391371 -0.59856355 -0.17130201 -0.78254539 0.0033109901
-0.23450203 0.84907436 2.5513408 -0.66884816 -0.1498291 -0.72814381 0.0031456477
-0.23622507 0.88006848 2.5454514 -0.69653141 -0.11312933 -0.70855188 0.0048053805
-0.19918329 0.84998411 2.5244381 -0.555525 -0.16996494 -0.81394345 0.0031063852
-0.21509929 0.84607017 2.5334938 -0.59037828 -0.16976078 -0.7890721 0.0035401103
-0.20433341 0.88064522 2.5210049 -0.55980641 -0.14759573 -0.81537247 0.0038814545
-0.22019979 0.87609017 2.531343 -0.58985597 -0.14668784 -0.7940734 0.0049131191
-0.18303585 0.78841436 2.5257001 -0.52141839 -0.20951031 -0.82718092 0.0033092957
-0.18866354 0.78182423 2.5341001 -0.526591 -0.2160729 -0.82220095 0.0032487789
-0.18330979 0.81925696 2.5224545 -0.51324445 -0.19363892 -0.8361125 0.0023023349
-0.18931064 0.80882883 2.5293601 -0.51324445 -0.19363892 -0.8361125 0.0023023349
-0.18231854 0.8457486 2.5147705 -0.49865016 -0.18397756 -0.84705389 0.0019762332
-0.18069929 0.87950003 2.50857 -0.47822177 -0.16087899 -0.86337817 0.0014329357
-0.23687439 0.91113162 2.5414596 -0.7239604 -0.04711682 -0.68823063 0.0057843332
-0.23651838 0.94216764 2.5418243 -0.74231428 0.0493224 -0.66823411 0.0051491335
-0.20776995 0.91146982 2.5165057 -0.58096421 -0.096725635 -0.80816132 0.005941127
-0.22211418 0.89649743 2.5278001 -0.60807735 -0.094479673 -0.78823572 0.0072529693
-0.20716071 0.94282788 2.5149233 -0.60887253 0.025137551 -0.79286969 0.0088944165
-0.22216688 0.95461172 2.5283999 -0.64052355 0.039530363 -0.76692045 0.010407694
-0.23548125 0.97348899 2.547591 -0.73928666 0.13347439 -0.66003019 0.0043048621
-0.20761989 0.96441346 2.5191 -0.6390996 0.13230778 -0.75765848 0.0067177215
-0.22018731 0.96904683 2.5311999 -0.66694492 0.16504337 -0.72659832 0.007742018
-0.1791563 0.91080445 2.5020683 -0.48980677 -0.11640334 -0.86402524 0.0030180698
-0.18484718 0.94042534 2.5018737 -0.50367254 -0.0026140688 -0.86389071 0.0062051094
-0.26285058 0.70244825 2.6006999 -0.56664431 -0.17647892 -0.80484122 0.020984426
-0.29009241 0.72595614 2.6194 -0.77146614 -0.11280403 -0.62619108 0.01287859
-0.29012194 0.75986481 2.6196666 -0.70439965 -0.13005385 -0.69778734 0.013005408
-0.26732862 0.7201336 2.6047924 -0.66455364 -0.16435052 -0.72894263 0.012296006
-0.27218524 0.75138468 2.6049659 -0.66929442 -0.15326209 -0.72701836 0.0073569603
-0.29668251 0.73547918 2.6370001 -0.77146614 -0.11280403 -0.62619108 0.01287859
-0.29705384 0.75181872 2.6378117 -0.70732635 -0.13324663 -0.69421518 0.013113382
-0.27687424 0.70906562 2.6252 -0.70906973 -0.14784418 -0.68946522 0.018425383
-0.28402245 0.73968971 2.6272001 -0.68774992 -0.13153307 -0.7139321 0.012245235
-0.45783383 1.0156856 2.6838999 -0.31890044 -0.32177472 -0.89149511 0.016199665
-0.39345664 0.97875684 2.6748435 -0.36633536 -0.040463079 -0.92960268 0.019857256
-0.39455333 1.004205 2.6736073 -0.37367669 0.012934398 -0.92746884 0.025230328
-0.45515275 0.96221936 2.7030501 -0.31890044 -0.32177472 -0.89149511 0.016199665
-0.4624435 1.0106153 2.6910858 -0.31890044 -0.32177472 -0.89149511 0.016199665
-0.44372332 0.96197098 2.7034667 -0.29580876 -0.17317416 -0.93941891 0.020983409
-0.3241097 0.80876386 2.6336 -0.69778693 -0.062428698 -0.71357971 0.010293731
-0.36223227 0.88666826 2.6656001 -0.56626064 0.0098784724 -0.82416701 0.012893367
-0.32521319 0.85107696 2.6425667 -0.64238209 -0.023056716 -0.76603758 0.0032359699
-0.33428419 0.8827793 2.6458929 -0.64209908 -0.023996592 -0.76624602 0.0046180505
-0.34674183 0.87975967 2.6599143 -0.59140217 0.0057618087 -0.80635613 0.0059056687
-0.29458663 0.78749859 2.6160555 -0.65575111 -0.15309401 -0.73929203 0.0095214965
-0.29770529 0.81364357 2.6156387 -0.66545236 -0.10229639 -0.73939747 0.0061742654
-0.25959733 0.79342568 2.5911002 -0.65970147 -0.14267062 -0.73786116 0.0041472334
-0.27284846 0.78279251 2.6034715 -0.67068511 -0.16056766 -0.72415429 0.0047748289
-0.26197565 0.81939501 2.5856285 -0.68448091 -0.12306686 -0.71856833 0.0034729666
-0.2752949 0.81395626 2.6006501 -0.68012553 -0.11488418 -0.72403789 0.0038247162
-0.30669913 0.78451163 2.6343999 -0.65812361 -0.15356986 -0.73708183 0.01060483
-0.31569466 0.81702054 2.6338589 -0.64416635 -0.084214963 -0.76023519 0.0068009715
-0.29566732 0.84761 2.6148908 -0.68198013 -0.055896029 -0.7292316 0.0029455521
-0.29724026 0.88011503 2.614064 -0.69451559 -0.028387964 -0.71891743 0.0025259559
-0.2633034 0.84805077 2.5807042 -0.7151897 -0.0934963 -0.69264859 0.0029642766
-0.27996439 0.84813458 2.5997391 -0.6969682 -0.063692302 -0.71426791 0.0023975526
-0.2640447 0.87981862 2.5791919 -0.74813515 -0.066989057 -0.66015625 0.002112644
-0.28068385 0.87955004 2.5992951 -0.72058713 -0.029337622 -0.69274342 0.0015883271
-0.31276098 0.8464728 2.6310384 -0.65768266 -0.035572443 -0.7524547 0.0026018366
-0.31453922 0.8790307 2.6310287 -0.67168212 -0.026826782 -0.74035364 0.0027044313
-0.36031649 0.91106284 2.6654236 -0.55506128 0.025566077 -0.83141649 0.0074542118
-0.36357629 0.94352764 2.6680694 -0.46689582 -0.039562169 -0.8834269 0.0077016922
-0.33546034 0.90993053 2.6488764 -0.64497727 -0.0035955356 -0.7641933 0.0049861763
-0.34971496 0.9187116 2.6591201 -0.59687477 0.011812283 -0.80224746 0.0060186582
-0.33290905 0.94186395 2.648911 -0.63242763 -0.038899049 -0.77364212 0.0064887516
-0.34703329 0.94475001 2.6576934 -0.56958497 -0.03740884 -0.82108068 0.0063617229
-0.35472557 0.98823047 2.6545999 -0.44350109 -0.046022348 -0.89509147 0.010570273
-0.36816606 0.97463483 2.6664619 -0.44350109 -0.046022348 -0.89509147 0.010570273
-0.3562206 0.99896693 2.6541333 -0.43540493 0.0057719746 -0.90021622 0.014863979
-0.36928335 1.0079696 2.6690171 -0.43540493 0.0057719746 -0.90021622 0.014863979
-0.33614194 0.9771511 2.6481667 -0.61377567 -0.0137095 -0.78936142 0.0068229712
-0.34647918 0.96470404 2.6578858 -0.56110501 -0.026573505 -0.82731795 0.0059192432
-0.3361176 1.0063863 2.6471839 -0.59459412 0.037459183 -0.80315292 0.008197519
-0.35068002 1.0157684 2.6593499 -0.54571909 0.014591559 -0.83784109 0.0073287771
-0.29866293 0.91054314 2.6136239 -0.6946854 0.0014141119 -0.71931231 0.0025070433
-0.29980832 0.94226021 2.6135917 -0.68876505 -0.0067195124 -0.72495347 0.0028643266
-0.26419657 0.91055924 2.5797305 -0.75965363 -0.020564074 -0.65000266 0.0025387486
-0.28127325 0.9137845 2.5989914 -0.7201696 -0.0093796235 -0.69373465 0.0021038135
-0.26364157 0.94449395 2.5798454 -0.74853188 0.033928551 -0.66223025 0.0043322206
-0.28128144 0.94308525 2.5987785 -0.70440662 0.003453034 -0.70978826 0.0034440176
-0.31512526 0.91268092 2.6337667 -0.67531681 -0.0060073384 -0.73750329 0.0027371312
-0.31523648 0.94472504 2.6304111 -0.67972499 -0.017221596 -0.73326486 0.0031302152
-0.29962817 0.97486436 2.6120083 -0.66749477 0.027153444 -0.74411923 0.0045306468
-0.29955998 1.0019814 2.6164751 -0.64311421 0.094688565 -0.75989354 0.0053440752
-0.26441655 0.9732632 2.5841579 -0.72734523 0.093663469 -0.67985004 0.0066077271
-0.27973905 0.97680885 2.5961556 -0.67808568 0.065430239 -0.73206466 0.0053198673
-0.26289171 0.99606144 2.5898499 -0.67525989 0.19669427 -0.71086949 0.0071758297
-0.27585229 1.0048739 2.6003392 -0.64740133 0.15415154 -0.7463972 0.0055866553
-0.3152577 0.97593898 2.630589 -0.66238117 0.016592441 -0.7489832 0.0046854587
-0.31411302 1.0091007 2.6317778 -0.64764923 0.076488987 -0.75808966 0.0065090014
-0.22764988 0.66326314 2.5908 -0.44567621 -0.17936058 -0.87704194 0.023350406
-0.23007223 0.66595554 2.5924001 -0.44567621 -0.17936058 -0.87704194 0.023350406
-0.23592514 0.69420445 2.5881867 -0.49246961 -0.21937972 -0.84222692 0.0099867797
-0.23907335 0.69100523 2.5946 -0.49149406 -0.21416724 -0.84413624 0.010800695
-0.21127126 0.66538125 2.5829272 -0.49211881 -0.19314839 -0.84883022 0.024910832
-0.21997604 0.65961313 2.5943999 -0.4662666 -0.17122917 -0.86791474 0.023940619
-0.20763484 0.68803644 2.5786481 -0.52530688 -0.24792865 -0.81399268 0.012190427
-0.2233572 0.67776287 2.5939 -0.46253091 -0.2132832 -0.86056691 0.010659139
-0.23644523 0.71782351 2.5846155 -0.55126131 -0.24285795 -0.79820484 0.007787188
-0.25249735 0.72098058 2.5938308 -0.54795939 -0.22652511 -0.80524957 0.0096230973
-0.23723952 0.75163847 2.5756905 -0.60427397 -0.20439832 -0.77011317 0.0069264295
-0.25340128 0.74761087 2.5955637 -0.59149331 -0.17154519 -0.7878502 0.0089107277
-0.20961955 0.71848392 2.5705872 -0.54979271 -0.26433274 -0.79237378 0.0075573213
-0.21525903 0.7420525 2.5634429 -0.57453072 -0.24308835 -0.78155136 0.0056930939
-0.18953475 0.66889262 2.5686002 -0.62795079 -0.089942023 -0.77303833 0.017541291
-0.18941176 0.67975986 2.5669334 -0.6381349 -0.20419846 -0.74235225 0.0096527189
-0.24388917 0.78267783 2.5746541 -0.64750797 -0.16710691 -0.74351108 0.003720497
-0.25522417 0.77802032 2.5929999 -0.66132224 -0.14807707 -0.73534077 0.0050103022
-0.24513674 0.81404936 2.5693376 -0.67682809 -0.15891315 -0.71878397 0.0025533014
-0.24830984 0.84346646 2.5662899 -0.70287234 -0.14670348 -0.69602334 0.0027824733
-0.25087681 0.87699705 2.5641 -0.74715286 -0.087752543 -0.65883386 0.0029894668
-0.25225446 0.9134329 2.5628285 -0.77775997 -0.027309278 -0.62796783 0.0024008621
-0.25154656 0.94670671 2.5632668 -0.7730996 0.047627762 -0.63249397 0.0037733498
-0.25010857 0.97438538 2.5677834 -0.75823414 0.10442311 -0.64356565 0.0052748094
-0.25234753 0.99496913 2.5791333 -0.71231699 0.19593066 -0.6739552 0.0060751066
-0.36505467 1.0283107 2.666075 -0.43316397 0.19816539 -0.87926072 0.02185767
-0.31311566 1.0241069 2.6386001 -0.59316123 0.21377951 -0.7761817 0.0051260591
0.087157078 -0.31840119 0.76695001 -0.048513003 0.86862445 -0.49309033 2.0552578e-05
0.11359434 -0.31731385 0.76622915 -0.049822502 0.86842394 -0.4933129 2.1075009e-05
0.1454701 -0.31615251 0.76493108 -0.050313029 0.86752701 -0.49483886 2.5898791e-05
0.1754683 -0.31497219 0.76397628 -0.050852336 0.86762327 -0.49461493 2.9177269e-05
0.20788707 -0.31346002 0.76339197 -0.052840404 0.8676033 -0.49444148 2.9499321e-05
0.24009429 -0.31210265 0.76227254 -0.054259785 0.86767393 -0.49416378 2.5530919e-05
0.010255115 -0.32082579 0.76952499 -0.046500381 0.86965936 -0.49145728 2.2878903e-05
0.015650224 -0.31226993 0.78456682 -0.047195189 0.86861795 -0.49322963 2.6709451e-05
0.01519361 -0.29635966 0.81278473 -0.047133867 0.86917418 -0.49225461 1.9898625e-05
0.016469117 -0.28687614 0.82885754 -0.047148272 0.86915433 -0.49228826 2.0151585e-05
0.04759964 -0.31094807 0.78376257 -0.047793105 0.86765683 -0.49486101 2.3148314e-05
0.047216743 -0.29535583 0.81130815 -0.047584884 0.86897248 -0.49256724 1.9743846e-05
0.04834877 -0.28598595 0.82698846 -0.047632713 0.86894923 -0.49260366 1.9682282e-05
0.015444173 -0.27670205 0.84736985 -0.04823425 0.86898017 -0.4924905 2.0662455e-05
0.015048341 -0.26214316 0.87307054 -0.049233995 0.86838061 -0.4934482 1.8173905e-05
0.047519036 -0.27485651 0.8474285 -0.048665728 0.86865312 -0.49302477 2.1672578e-05
0.046769969 -0.26122752 0.87137908 -0.049080435 0.8675099 -0.49499264 1.8497791e-05
0.079518571 -0.30965143 0.78309315 -0.048608031 0.86705548 -0.49583474 2.5320769e-05
0.07888744 -0.29454985 0.80965394 -0.048442867 0.86880577 -0.49277771 2.2383769e-05
0.080325976 -0.28521013 0.82566303 -0.048442867 0.86880577 -0.49277771 2.2383769e-05
0.11144404 -0.30769107 0.78322446 -0.0500177 0.86684471 -0.49606299 2.2684195e-05
0.11086649 -0.29360929 0.80821103 -0.049979977 0.86869764 -0.49281478 2.182438e-05
0.11209244 -0.2842623 0.82389998 -0.049979977 0.86869764 -0.49281478 2.182438e-05
0.079599977 -0.27316737 0.84749603 -0.048891392 0.86833662 -0.49355966 2.4926845e-05
0.079075456 -0.26033923 0.86978066 -0.049876325 0.86645889 -0.4967508 1.9450848e-05
0.11156426 -0.27127382 0.84753954 -0.050405804 0.86798853 -0.49401939 2.4762936e-05
0.11049786 -0.2593666 0.86806434 -0.051492557 0.865547 -0.49817362 1.9805209e-05
0.14343984 -0.30590427 0.78320813 -0.049919944 0.86710215 -0.49562272 2.4196905e-05
0.14307095 -0.29269937 0.80659723 -0.050123256 0.86856729 -0.49302998 2.2654594e-05
0.1438504 -0.28334093 0.82237065 -0.050123256 0.86856729 -0.49302998 2.2654594e-05
0.17545258 -0.30418754 0.78290403 -0.050825145 0.86732572 -0.49513921 2.3065177e-05
0.17509754 -0.29183593 0.80478817 -0.051884033 0.86821532 -0.49346754 2.1061294e-05
0.17571501 -0.28271896 0.82050204 -0.051886607 0.86821169 -0.49347362 2.0928968e-05
0.14353035 -0.26939589 0.84766102 -0.050074153 0.86771959 -0.49452534 2.4561441e-05
0.14244312 -0.25817657 0.86685193 -0.050786436 0.86487448 -0.49941254 1.8070317e-05
0.17563042 -0.26770547 0.84722716 -0.052407581 0.86723697 -0.49512979 2.361292e-05
0.17283967 -0.25758293 0.86495292 -0.052935984 0.86460072 -0.49966332 1.8752522e-05
0.2075479 -0.30219281 0.78306693 -0.052751556 0.86780214 -0.49410194 2.2251959e-05
0.20640051 -0.29080644 0.80313843 -0.052625205 0.86849654 -0.49289382 2.0328773e-05
0.20792174 -0.28171921 0.81890345 -0.052631803 0.86849344 -0.49289858 1.9952611e-05
0.23946668 -0.30025318 0.78295189 -0.054665621 0.86759961 -0.49424949 2.1814669e-05
0.23701291 -0.28981018 0.8015908 -0.05423722 0.868487 -0.49273586 2.0363543e-05
0.23996373 -0.28079903 0.81714171 -0.054313496 0.8684383 -0.49281329 1.9155201e-05
0.20728721 -0.26600039 0.84663463 -0.052471265 0.86712623 -0.49531689 2.5349285e-05
0.19627732 -0.25673476 0.86405718 -0.052372552 0.86434722 -0.50016099 2.0825411e-05
0.23928884 -0.26480347 0.84571809 -0.054347679 0.86714864 -0.49507532 2.6727081e-05
0.015846845 -0.25310063 0.88890547 -0.049233995 0.86838061 -0.4934482 1.8173905e-05
0.048474774 -0.25198427 0.88737988 -0.049080435 0.8675099 -0.49499264 1.8497791e-05
0.079797238 -0.25110424 0.88591611 -0.049876325 0.86645889 -0.4967508 1.9450848e-05
0.11200459 -0.2503055 0.88397586 -0.051586147 0.86549127 -0.49826068 1.9716304e-05
0.015427885 -0.24029215 0.91139227 -0.051270559 0.86702728 -0.49561575 1.3338417e-05
0.014637874 -0.22767811 0.93349826 -0.052961741 0.86594921 -0.49731979 1.5071027e-05
0.016007613 -0.21856797 0.94926417 -0.052996505 0.86592978 -0.49734995 1.5110918e-05
0.047358707 -0.23841064 0.91119289 -0.051081326 0.86641055 -0.49671263 1.3642876e-05
0.047486555 -0.22671916 0.931624 -0.052417297 0.8653509 -0.49841776 1.8053703e-05
0.047685564 -0.21756133 0.94733834 -0.052501488 0.86528707 -0.49851972 1.78018e-05
0.015365221 -0.20350836 0.97551256 -0.05422169 0.86478078 -0.49921355 2.0437303e-05
0.014097995 -0.1935131 0.99260002 -0.055351842 0.86460954 -0.4993861 2.3050576e-05
0.047422875 -0.20162803 0.974976 -0.054015141 0.86427712 -0.50010741 2.0243871e-05
0.015528847 -0.18450207 1.0082444 -0.055633269 0.86442786 -0.49966928 2.1495816e-05
0.059423115 -0.19144772 0.99096 -0.054341301 0.86420786 -0.50019175 2.2645838e-05
0.047375146 -0.18297608 1.0070575 -0.055581585 0.86373389 -0.50087363 2.1621081e-05
0.079517454 -0.23659644 0.91129088 -0.052076951 0.8655076 -0.49818128 1.6723254e-05
0.076390982 -0.2259669 0.93024492 -0.053792503 0.86446691 -0.49980327 2.2061162e-05
0.080107719 -0.21670802 0.94561815 -0.054117572 0.86425501 -0.50013453 2.1703829e-05
0.1114511 -0.23460339 0.91111392 -0.053053766 0.86505777 -0.49885908 1.7412929e-05
0.10632509 -0.22516514 0.92844617 -0.055160027 0.86381239 -0.50078493 2.4183413e-05
0.11163253 -0.21565682 0.94370902 -0.055367053 0.86353397 -0.50124198 2.2417546e-05
0.079046555 -0.20065084 0.9735502 -0.05579019 0.86347061 -0.50130427 2.3502149e-05
0.1112311 -0.19978142 0.97113049 -0.056708083 0.8626278 -0.50265044 2.2042082e-05
0.08344885 -0.19117841 0.98926204 -0.055973519 0.86349863 -0.50123554 2.5100826e-05
0.0795964 -0.18108113 1.0071191 -0.056943111 0.86298203 -0.50201541 2.4080973e-05
0.1124476 -0.19016787 0.98726767 -0.056709643 0.86264551 -0.50261986 2.3111077e-05
0.11144529 -0.17857164 1.0074751 -0.05840943 0.86267298 -0.50237805 2.0833868e-05
0.14382033 -0.24920429 0.88263184 -0.05088428 0.86477077 -0.49958214 1.7658729e-05
0.17567044 -0.24841851 0.88076675 -0.053116046 0.86441249 -0.49996978 1.7909977e-05
0.21422453 -0.25637493 0.86284614 -0.052404236 0.86701596 -0.49551702 2.9048073e-05
0.20773359 -0.24700969 0.87959456 -0.052699603 0.86397403 -0.50077105 1.95537e-05
0.24273652 -0.25534481 0.86179447 -0.054410547 0.86706418 -0.49521634 2.8683453e-05
0.23948176 -0.24546191 0.87906927 -0.053906344 0.86391401 -0.50074613 1.9851157e-05
0.14304027 -0.23333585 0.91000509 -0.051148884 0.86445111 -0.50010806 1.701118e-05
0.15000053 -0.22368686 0.92571664 -0.051427644 0.86409688 -0.50069129 1.7645918e-05
0.14340903 -0.2140834 0.94339007 -0.052919798 0.8629052 -0.50258744 2.2082604e-05
0.17541462 -0.23229545 0.90846312 -0.053778194 0.86380059 -0.50095558 1.9931564e-05
0.17648162 -0.22275056 0.9247185 -0.054083858 0.86358368 -0.50129652 2.0177646e-05
0.17547895 -0.21214946 0.94329804 -0.055167489 0.86202335 -0.50385737 2.4227398e-05
0.14320102 -0.19843756 0.96986383 -0.053875513 0.86206782 -0.50392115 2.1236709e-05
0.17523438 -0.19778515 0.96733743 -0.05644913 0.86151624 -0.50458223 2.0829892e-05
0.14447318 -0.18904641 0.98592275 -0.053844463 0.86208439 -0.50389606 2.144262e-05
0.14341578 -0.17671083 1.0071857 -0.05548685 0.86277688 -0.50253093 1.8259956e-05
0.17569989 -0.1882592 0.98391277 -0.05644913 0.86151624 -0.50458223 2.0829892e-05
0.17554776 -0.17444019 1.0076394 -0.057481118 0.86261863 -0.50257838 1.748282e-05
0.20689188 -0.2312748 0.90689707 -0.054233477 0.86279786 -0.50263166 2.3369052e-05
0.20924558 -0.22181058 0.92272782 -0.05435054 0.86272508 -0.50274396 2.369094e-05
0.2074666 -0.20974337 0.94368583 -0.055638883 0.86098021 -0.50558615 2.6411466e-05
0.23907004 -0.23018323 0.90535712 -0.054843601 0.86232495 -0.50337642 2.8384902e-05
0.23978117 -0.22080356 0.92111218 -0.054863784 0.8623144 -0.50339228 2.8519829e-05
0.2393437 -0.20792539 0.94337106 -0.056077197 0.85989553 -0.50738049 4.4716988e-05
0.20664348 -0.19620696 0.96637458 -0.059153762 0.8600266 -0.50680876 5.4189666e-05
0.23879312 -0.19522192 0.96471161 -0.059604164 0.85860491 -0.50916106 8.9306028e-05
0.2079581 -0.18688637 0.98243165 -0.059228726 0.85996294 -0.50690794 5.5817221e-05
0.20758159 -0.17228973 1.0075936 -0.062288083 0.86106741 -0.50466138 7.5629549e-05
0.24040233 -0.18586698 0.98040527 -0.059663299 0.85852164 -0.50929457 9.0910718e-05
0.23650801 -0.17130025 1.0050342 -0.065856084 0.85925239 -0.50729507 0.00014424621
0.23404592 -0.15970007 1.0224 -0.070672296 0.85783166 -0.5090484 0.0001672629
0.27202424 -0.31056449 0.76131034 -0.056157459 0.86699152 -0.49514848 1.797245e-05
0.30383915 -0.30916497 0.7601769 -0.056704089 0.86617923 -0.49650598 1.478767e-05
0.33596703 -0.307569 0.75932306 -0.05716072 0.86535537 -0.4978883 1.6176229e-05
0.36806378 -0.30628628 0.75786936 -0.058888696 0.86462498 -0.49895462 2.4186462e-05
0.39807904 -0.30492559 0.75669795 -0.06064048 0.86393636 -0.49993673 4.6713052e-05
0.27130952 -0.29814807 0.78318185 -0.056221765 0.86758316 -0.49410382 1.7751161e-05
0.2615276 -0.28869838 0.80034 -0.056177631 0.86903238 -0.49155542 1.7714101e-05
0.28272405 -0.28805381 0.79894286 -0.056221765 0.86758316 -0.49410382 1.7751161e-05
0.27170652 -0.27955574 0.81557477 -0.056126919 0.86895388 -0.49170002 1.6240701e-05
0.30310109 -0.29696375 0.78153795 -0.056332935 0.86727983 -0.49462339 1.8360804e-05
0.30688214 -0.28745207 0.79749089 -0.056332935 0.86727983 -0.49462339 1.8360804e-05
0.30350867 -0.27782503 0.81510198 -0.056357279 0.86868709 -0.49214488 1.8868064e-05
0.27124736 -0.26375726 0.84372276 -0.055858899 0.86733544 -0.49457967 2.8508053e-05
0.30303267 -0.26263097 0.84239095 -0.055303551 0.86761713 -0.49414775 3.1867232e-05
0.33511674 -0.29578906 0.78000051 -0.05727189 0.86709642 -0.49483708 1.9299061e-05
0.33695912 -0.28643712 0.79579288 -0.05727189 0.86709642 -0.49483708 1.9299061e-05
0.33556837 -0.27556738 0.81536192 -0.05817112 0.86865664 -0.49198756 2.2294274e-05
0.36693886 -0.29477564 0.77808243 -0.058690641 0.86656737 -0.49559698 2.5170992e-05
0.3687267 -0.28538021 0.79384118 -0.058690641 0.86656737 -0.49559698 2.5170992e-05
0.36394107 -0.27518395 0.81273788 -0.059753906 0.86793417 -0.49307179 3.134695e-05
0.33489108 -0.26151204 0.84069788 -0.058292665 0.86749929 -0.49401113 3.9181377e-05
0.3551648 -0.26174888 0.83730221 -0.059460338 0.86766106 -0.49358758 6.1054256e-05
0.39235547 -0.29430023 0.77571017 -0.061130162 0.86575347 -0.49672326 3.5367371e-05
0.38732094 -0.28559878 0.79087692 -0.061130162 0.86575347 -0.49672326 3.5367371e-05
0.27247629 -0.25443572 0.85984302 -0.055925202 0.86728281 -0.49466449 2.9481529e-05
0.27159011 -0.24307893 0.87947375 -0.055290166 0.86331815 -0.5016222 2.0816835e-05
0.30490237 -0.25341859 0.8582992 -0.055342756 0.86759722 -0.49417838 3.1995278e-05
0.30350867 -0.24131013 0.87912065 -0.055599283 0.86356664 -0.50116009 2.4197992e-05
0.33479378 -0.25253844 0.85588449 -0.058292665 0.86749929 -0.49401113 3.9181377e-05
0.32649797 -0.24221592 0.87485969 -0.060857713 0.86249876 -0.50238651 3.9504572e-05
0.35317197 -0.25598148 0.84646666 -0.059460338 0.86766106 -0.49358758 6.1054256e-05
0.27062953 -0.22922035 0.90347064 -0.0559537 0.86174935 -0.50423926 3.3367105e-05
0.2722199 -0.2199547 0.91916549 -0.0559537 0.86174935 -0.50423926 3.3367105e-05
0.27072936 -0.20621809 0.94272923 -0.057666592 0.85906214 -0.50861263 5.9598286e-05
0.30227429 -0.22825976 0.90180153 -0.056923933 0.86156917 -0.50443858 4.2598826e-05
0.29729673 -0.22011352 0.9158327 -0.056923933 0.86156917 -0.50443858 4.2598826e-05
0.29072836 -0.21029936 0.93294001 -0.061831415 0.85718578 -0.51128209 0.00010854122
0.26549366 -0.19465423 0.96281952 -0.063589483 0.85555965 -0.51378411 0.00014235925
0.26214191 -0.18648617 0.97594416 -0.063611433 0.8554424 -0.51397651 0.00014346973
0.25676695 -0.17592131 0.99199998 -0.075612992 0.8513481 -0.51912332 0.00035992512
0.015027159 -0.16850224 1.0361115 -0.056709241 0.86485922 -0.49880114 1.8539307e-05
0.017582016 -0.15900634 1.052085 -0.05703266 0.86466074 -0.49910831 1.8328888e-05
0.015165601 -0.14818244 1.0712415 -0.058119569 0.86424482 -0.4997029 1.6247723e-05
0.04743059 -0.16722278 1.0342835 -0.056892253 0.86427844 -0.49978605 1.8453464e-05
0.04787473 -0.15772228 1.0504608 -0.056946017 0.86425245 -0.49982485 1.8611838e-05
0.047507115 -0.14573558 1.0714455 -0.058018658 0.86405569 -0.5000416 1.6764445e-05
0.01502542 -0.13384321 1.0959626 -0.059559308 0.86303639 -0.50161827 2.3172594e-05
0.047009222 -0.13237563 1.09437 -0.058916092 0.86257052 -0.50249481 2.4190325e-05
0.079084806 -0.16596213 1.0331806 -0.057697728 0.86379981 -0.50052059 2.1905271e-05
0.079534955 -0.1564991 1.0492989 -0.057697728 0.86379981 -0.50052059 2.1905271e-05
0.079564802 -0.14382465 1.0713502 -0.058139559 0.86383957 -0.50040084 1.9582159e-05
0.11022969 -0.16485292 1.0309865 -0.05876207 0.86334461 -0.50118172 1.98912e-05
0.1124477 -0.15562308 1.0468545 -0.05876207 0.86334461 -0.50118172 1.98912e-05
0.11141418 -0.14140841 1.0715778 -0.060191233 0.8631205 -0.50139809 1.9807545e-05
0.079230808 -0.13121045 1.0930209 -0.057889003 0.86219943 -0.50325042 2.2127295e-05
0.10808004 -0.13027331 1.0911027 -0.061560329 0.86156827 -0.50389528 2.0362688e-05
0.015906511 -0.12462716 1.1120465 -0.059559308 0.86303639 -0.50161827 2.3172594e-05
0.015126012 -0.11103341 1.135267 -0.060732063 0.86277217 -0.50193208 2.5366073e-05
0.048289716 -0.12292314 1.1106075 -0.058916092 0.86257052 -0.50249481 2.4190325e-05
0.047284465 -0.108437 1.1352836 -0.059265845 0.86277783 -0.50209755 2.9955168e-05
0.080031633 -0.12216248 1.1088066 -0.057987288 0.86214328 -0.5033353 2.1790845e-05
0.079435766 -0.10680667 1.1347739 -0.058829594 0.8622461 -0.50306135 3.1489526e-05
0.11233189 -0.12107304 1.1064 -0.061821502 0.86135405 -0.50422937 2.1411033e-05
0.11082227 -0.10523917 1.1335809 -0.065036029 0.86114711 -0.50417846 3.2204625e-05
0.1184708 -0.095749192 1.1487058 -0.06559395 0.86072421 -0.50482798 3.4986304e-05
0.014783212 -0.09904319 1.1562521 -0.061275803 0.86161858 -0.5038439 3.1933007e-05
0.016138734 -0.08970587 1.1718475 -0.06121755 0.86164451 -0.50380665 3.0814419e-05
0.014667888 -0.073939025 1.198548 -0.061197277 0.86108583 -0.50476336 3.0118663e-05
0.045318458 -0.097653523 1.15416 -0.059810307 0.86157614 -0.50409251 3.7271453e-05
0.048033688 -0.088217951 1.1701865 -0.059556428 0.86171985 -0.50387692 3.5065772e-05
0.046907134 -0.072373778 1.1971031 -0.060587458 0.86001712 -0.50665545 4.6701705e-05
0.025811614 -0.063499719 1.21488 -0.06109241 0.86125135 -0.50449359 3.2937049e-05
0.049802046 -0.062884741 1.2133501 -0.060454484 0.85997069 -0.50675011 5.0554016e-05
0.015378647 -0.054778676 1.231511 -0.063896351 0.86087632 -0.50478631 6.2048064e-05
0.015035975 -0.038695954 1.2590715 -0.071187995 0.85756892 -0.50941908 0.00021847335
0.016717982 -0.02911021 1.2746764 -0.071642384 0.85729957 -0.5098086 0.00021831568
0.047333505 -0.052240241 1.231531 -0.066076569 0.85833824 -0.50881165 0.00015628946
0.047568526 -0.037013173 1.2575943 -0.077383727 0.85336936 -0.5155313 0.00033893407
0.049424179 -0.027194628 1.2724392 -0.077383727 0.85336936 -0.5155313 0.00033893407
0.077228494 -0.096792758 1.1526154 -0.059060317 0.86181235 -0.50377709 4.6042056e-05
0.079770952 -0.087222025 1.1687799 -0.059266843 0.86182588 -0.50372964 4.6406538e-05
0.079001717 -0.071338393 1.1953754 -0.061057843 0.85976374 -0.50702888 7.2323695e-05
0.11128516 -0.085585922 1.1670908 -0.066865087 0.86061174 -0.50485289 5.2322532e-05
0.10580935 -0.070920654 1.1926594 -0.073094763 0.8572551 -0.50967723 9.8664997e-05
0.08044681 -0.061896786 1.2118824 -0.061486628 0.8595565 -0.50732833 7.4767457e-05
0.10067657 -0.060969744 1.2096111 -0.073616154 0.85704792 -0.50995058 9.9451398e-05
0.078312814 -0.050880529 1.2301172 -0.06575112 0.85618931 -0.51246142 0.00023565177
0.071138307 -0.036675949 1.2535412 -0.082160145 0.84697807 -0.52524078 0.00058614725
0.069252573 -0.028651202 1.2637867 -0.082160145 0.84697807 -0.52524078 0.00058614725
0.097209014 -0.055109598 1.2186999 -0.076286562 0.85037959 -0.52061009 0.0004597423
0.14259641 -0.1639801 1.0291024 -0.055971682 0.86313063 -0.50186926 1.9204088e-05
0.14380091 -0.15474598 1.0449655 -0.056047402 0.86308581 -0.50193781 1.9538227e-05
0.1435574 -0.13934426 1.0714686 -0.057652894 0.86246556 -0.50282127 2.4620247e-05
0.17430843 -0.16270109 1.02773 -0.058010355 0.86245966 -0.50279033 2.0801059e-05
0.17594433 -0.15347031 1.0434861 -0.058045886 0.86241692 -0.50285953 2.1030262e-05
0.17512517 -0.13771567 1.070707 -0.059485123 0.8616516 -0.50400203 2.8211016e-05
0.13610804 -0.12971696 1.0881556 -0.059806265 0.86097747 -0.50511485 2.6814805e-05
0.2026746 -0.16173543 1.0261097 -0.067322008 0.8608191 -0.50443852 9.3634219e-05
0.20668864 -0.15334387 1.0398424 -0.067345403 0.86077136 -0.50451684 9.2508722e-05
0.19757539 -0.13976307 1.0640334 -0.069732673 0.86026174 -0.50506151 9.14009e-05
0.22791331 -0.1563635 1.029775 -0.078431919 0.85710943 -0.50912857 0.00023983576
0.18178947 -0.12760398 1.0864857 -0.06027253 0.86117107 -0.50472927 3.2732158e-05
0.14352515 -0.1199312 1.1044956 -0.059982788 0.86074191 -0.50549525 2.7230099e-05
0.14234094 -0.10436444 1.131042 -0.064195417 0.86017865 -0.50593638 4.0163766e-05
0.13839647 -0.094876461 1.1471519 -0.064687975 0.85985869 -0.50641733 4.1412361e-05
0.16929221 -0.12068164 1.1001084 -0.060036737 0.85984743 -0.50700885 3.89136e-05
0.16064736 -0.10809831 1.12245 -0.060605202 0.85870183 -0.50887936 7.2298826e-05
0.13230935 -0.088145107 1.1593063 -0.070387617 0.85905319 -0.50702387 8.1534723e-05
0.015017904 -0.017054239 1.2957239 -0.078671791 0.8560285 -0.51090693 0.00029688198
0.013913876 -0.0039855777 1.3178999 -0.092657708 0.85271078 -0.51410002 0.00049131503
0.042875174 -0.015223574 1.2923706 -0.09720502 0.8504802 -0.51694739 0.00048456143
0.034270681 -0.0021318814 1.31375 -0.12687239 0.83829868 -0.53024399 0.00081301079
0.24610618 -0.071140215 1.7705364 0.52037901 -0.44036677 -0.73163021 0.068148986
0.24904723 -0.015708091 1.7242 -0.53706312 -0.38725743 -0.74939638 0.043020532
0.24496944 -0.047554299 1.7497773 0.48805797 -0.40214705 -0.77464646 0.041599616
0.24755055 -0.060238615 1.7626364 0.51480317 -0.3764472 -0.77023715 0.044001851
0.2429554 -0.019523202 1.7387534 0.56219065 -0.30851862 -0.76730561 0.042647406
0.50897628 -0.32335931 1.873 -0.10511563 0.75551963 -0.6466381 0.028638927
0.47852859 -0.29524592 1.9172001 -0.61799049 0.47764432 -0.62445468 0.035834856
0.50376272 -0.31400585 1.8791875 -0.32011569 0.30300909 -0.8976143 0.082326993
0.49651521 -0.29922915 1.9052225 -0.45900705 0.4224548 -0.78156543 0.068917915
0.50377458 -0.27446491 1.909849 -0.65276271 -0.033130225 -0.75683767 0.082740679
0.4737702 -0.29088455 1.92185 -0.61922669 0.48705906 -0.61589915 0.051793691
0.47235942 -0.28265768 1.9299053 -0.87917846 0.19661461 -0.43403676 0.070645675
0.47997296 -0.2896992 1.9196 -0.48166692 0.35019341 -0.80334401 0.070460446
0.49137571 -0.2721886 1.9316328 -0.59460807 0.067653507 -0.80116427 0.097532116
0.49476543 -0.25928983 1.9581001 -0.5933634 0.73794705 -0.32148725 0.012843246
0.34428105 -0.13600618 1.5923926 -0.49110761 0.23571646 -0.83860064 0.021387139
0.37867785 -0.16064462 1.5812666 -0.4014447 -0.17023486 -0.89992344 0.011172855
0.3697333 -0.14163293 1.5799478 -0.3515687 0.24575791 -0.9033286 0.021153914
0.3348743 -0.13383161 1.6057286 -0.50432175 0.24205148 -0.82889724 0.023203606
0.31784344 -0.082056016 1.6579715 -0.65320098 0.54056633 -0.53020424 0.0029120794
0.34580836 -0.11821771 1.5950143 -0.38358924 0.46918488 -0.79544002 0.023119694
0.36773473 -0.11288658 1.5871598 -0.26173571 0.51266146 -0.81772405 0.019595651
0.37803748 -0.094325095 1.5981667 -0.25073281 0.64219767 -0.72437227 0.0093789222
0.33578113 -0.10903138 1.6103215 -0.46180019 0.49282953 -0.73746842 0.020053752
0.32410258 -0.098473102 1.6359 -0.51497537 0.6018095 -0.61043072 0.017185399
0.34184492 -0.087099589 1.6207588 -0.39381891 0.64238614 -0.65745467 0.0077228039
0.33140403 -0.076850206 1.6440022 -0.44383895 0.67124677 -0.5936622 0.008789991
0.35439065 -0.098450765 1.6004 -0.3141014 0.53853786 -0.7818678 0.019889064
0.3674458 -0.081180163 1.6151656 -0.25100282 0.69279385 -0.67604309 0.0079236832
0.36240983 -0.066092625 1.6343286 -0.26760921 0.72649813 -0.63291848 0.0094529865
0.34081602 -0.056916051 1.6547755 -0.39892915 0.71362829 -0.57583869 0.0084041348
0.36760345 -0.05296598 1.6485645 -0.21856482 0.76848835 -0.60137767 0.0062389197
0.31346899 -0.072235115 1.676625 -0.66648072 0.56425726 -0.48725471 0.0049058688
0.26457658 -0.067602158 1.7708727 0.25406244 -0.89332896 -0.37069613 0.10008696
0.31581345 -0.057180911 1.687219 -0.62143922 0.60583156 -0.49677098 0.0045490484
0.31175858 -0.045524098 1.7106233 -0.69455838 0.56549203 -0.44475541 0.014784487
0.3150889 -0.026944516 1.7203223 -0.664859 0.60555297 -0.43734208 0.01507353
0.257714 -0.047437366 1.7556666 -0.38658386 0.9222365 -0.0057213157 0.18469632
0.27437672 -0.053179108 1.7738941 0.33185011 -0.59284526 -0.73376429 0.13072501
0.30203679 -0.0439943 1.7466865 -0.75354958 0.51637614 -0.40683988 0.021977842
0.29290214 -0.044128232 1.7702378 -0.77435875 0.46599507 -0.42803869 0.039648216
0.30951673 -0.016314084 1.7455 -0.72502977 0.55897629 -0.40233985 0.019752013
0.29701898 -0.015428286 1.7749614 -0.71455711 0.52747381 -0.45954275 0.023565404
0.32073051 -0.068776198 1.6670001 -0.47191796 0.69825757 -0.53826559 0.014227946
0.33247045 -0.045588885 1.6777159 -0.41553989 0.72535616 -0.54880333 0.010664532
0.32124937 -0.037311476 1.69844 -0.49907503 0.70740497 -0.50050205 0.026513556
0.34192911 -0.029055798 1.6897454 -0.37269458 0.75738889 -0.53615373 0.01164922
0.33492017 -0.017665001 1.7121379 -0.45545346 0.74263316 -0.49097666 0.022921123
0.3665292 -0.037533097 1.6707444 -0.20157756 0.78506798 -0.58569169 0.0074453824
0.36795282 -0.026210384 1.6861764 -0.15733837 0.81404167 -0.55908924 0.0041848975
0.36684528 -0.010139144 1.7117914 -0.14393061 0.82276773 -0.54985201 0.0042874394
0.32910499 -0.0051015788 1.7344 -0.54006785 0.69392341 -0.47623211 0.034134187
0.40196553 -0.16510086 1.5747875 -0.24729133 -0.12269852 -0.96114105 0.0061401352
0.40801418 -0.14241625 1.5662649 -0.18064001 0.25786453 -0.94914436 0.016137412
0.39625373 -0.14504382 1.5708908 -0.18215421 0.25959286 -0.94838357 0.016050678
0.43821615 -0.16433547 1.5657545 -0.13472767 -0.11165358 -0.98457193 0.0060195527
0.42880794 -0.16793196 1.5692692 -0.13472767 -0.11165358 -0.98457193 0.0060195527
0.4311533 -0.14380303 1.5635872 -0.10330734 0.26645127 -0.95829606 0.018524649
0.41779771 -0.1390356 1.5679333 -0.10330734 0.26645127 -0.95829606 0.018524649
0.46497914 -0.16754419 1.5646361 -0.066925064 -0.068973407 -0.99537116 0.0046736924
0.457497 -0.1737593 1.5676501 -0.066925064 -0.068973407 -0.99537116 0.0046736924
0.46309254 -0.14344952 1.5609459 -0.055948991 0.28419092 -0.95713383 0.017159475
0.49537736 -0.16721946 1.5624133 -0.037132043 -0.064922795 -0.99719918 0.0038834403
0.49533325 -0.14376195 1.5596514 -0.037760831 0.28175884 -0.9587419 0.016183965
0.39953634 -0.11189214 1.5807679 -0.14443655 0.54439187 -0.82630235 0.01573603
0.40120533 -0.09256465 1.5961643 -0.1091453 0.67874324 -0.72621959 0.002745152
0.43976113 -0.12573552 1.567125 -0.095378295 0.44458881 -0.89064234 0.011791002
0.43119088 -0.11072655 1.5781432 -0.086381078 0.56968868 -0.81730849 0.013860931
0.43233082 -0.09101554 1.59492 -0.054399867 0.69753337 -0.71448433 0.0017981341
0.39911205 -0.076687112 1.6143593 -0.096836738 0.72605479 -0.68078417 0.0030954971
0.43113679 -0.075248584 1.6130354 -0.050579228 0.74383849 -0.66644281 0.0023819853
0.41206676 -0.062256958 1.6308 -0.075621806 0.77713966 -0.6247682 0.00068171974
0.39960736 -0.051489986 1.6466354 -0.066374853 0.7996704 -0.59675926 0.00089801173
0.43183145 -0.062210511 1.6295834 -0.034923788 0.78866547 -0.61382985 0.00043090811
0.43140671 -0.049884278 1.6470386 -0.030574678 0.81186068 -0.58305013 0.00041412708
0.46394125 -0.12467227 1.5660261 -0.048926 0.478793 -0.87656349 0.0086854687
0.46350333 -0.10899077 1.5771879 -0.047733162 0.58395779 -0.81037945 0.011355237
0.46346262 -0.090364195 1.5940851 -0.03498413 0.7053864 -0.70795912 0.0017158679
0.49785361 -0.12411734 1.5652375 -0.031004867 0.48514062 -0.87388629 0.0082859099
0.49513364 -0.10810679 1.57645 -0.035696626 0.58492643 -0.81030047 0.011248786
0.49625698 -0.089263864 1.5934566 -0.029468598 0.70623356 -0.70736539 0.0021038309
0.46362498 -0.074333116 1.6130087 -0.03536541 0.75508088 -0.65467709 0.0020982905
0.49530098 -0.073481128 1.6122071 -0.033453524 0.76294708 -0.64559472 0.0018859492
0.46448895 -0.062166728 1.6284363 -0.024734484 0.79565972 -0.60523862 0.00041673501
0.46342975 -0.049700465 1.6464489 -0.022749281 0.81859326 -0.57392293 0.00025000933
0.49703589 -0.060876619 1.6285 -0.030020129 0.79923773 -0.60026485 0.0003929821
0.49565142 -0.048217908 1.6477833 -0.028969333 0.82013357 -0.57143825 0.00016464578
0.39799243 -0.036449037 1.6685077 -0.04325996 0.83093196 -0.55468971 0.00051904388
0.39918256 -0.025711827 1.6842327 -0.039481312 0.83311647 -0.55168664 0.00038705929
0.39976257 -0.0094416728 1.7113906 -0.03103506 0.84543586 -0.53317446 0.0001910954
0.43181622 -0.035767388 1.6682909 -0.02366708 0.83684206 -0.54693264 0.00016626705
0.4316819 -0.025704732 1.6838291 -0.024055479 0.83669102 -0.54714668 0.00015473105
0.43147042 -0.009621216 1.7094969 -0.029436424 0.8453086 -0.53346688 0.00011455232
0.46381515 -0.035744924 1.6672273 -0.021092214 0.83642423 -0.54767656 8.4868239e-05
0.46378982 -0.025520977 1.6824363 -0.021555033 0.83604932 -0.54823077 7.7183489e-05
0.46314025 -0.0094721755 1.7080531 -0.027232602 0.84136778 -0.5397765 7.0671289e-05
0.49386066 -0.035410654 1.6668444 -0.028041229 0.8343395 -0.55053723 8.7050234e-05
0.49594873 -0.024439622 1.6832563 -0.028175235 0.83413023 -0.55084747 7.673951e-05
0.49533924 -0.008337643 1.7083263 -0.032943401 0.83799589 -0.54468125 8.4609208e-05
0.27961928 -0.040040404 1.7938 -0.28560507 0.36382183 -0.88660216 0.068168588
0.29214954 -0.0021207645 1.7932 -0.66921335 0.50344229 -0.54653394 0.020996971
0.50919348 -0.23224674 1.8832889 -0.34754014 -0.42037237 -0.83815449 0.022695096
0.50504702 -0.24194747 1.8964444 -0.52850813 -0.39710972 -0.75032192 0.047609292
0.5084883 -0.22148068 1.88016 -0.38653308 -0.44284636 -0.80899894 0.048833236
0.50362492 -0.22246721 1.8942 -0.45917442 -0.55878901 -0.69058937 0.069365203
0.49967766 -0.25496382 1.9331601 -0.63608277 -0.26457196 -0.72484505 0.10155671
0.49460602 -0.25317955 1.9597334 -0.58510751 0.74427629 -0.32202789 0.013250566
0.49719572 -0.23496558 2.004375 -0.81618959 0.52899724 -0.23237146 0.003588232
0.48888648 -0.22992617 2.0339999 -0.93109435 0.20789565 -0.29973781 0.0015658151
0.76021546 -0.52578533 1.6850158 -0.069191538 0.84976071 -0.5226081 0.00014129649
0.75340843 -0.51565552 1.7019514 -0.066390812 0.85431111 -0.51550442 0.00012911418
0.82817209 -0.5816583 1.5849445 -0.066251405 0.86292678 -0.5009672 0.00018525757
0.82379216 -0.57491386 1.5977 -0.066251405 0.86292678 -0.5009672 0.00018525757
0.7978484 -0.55844015 1.6267999 -0.052280951 0.8527106 -0.51976085 0.00019719997
0.79094404 -0.54925656 1.6429722 -0.066258579 0.84477443 -0.53100467 0.00018645547
0.78638524 -0.54027838 1.658 -0.066258579 0.84477443 -0.53100467 0.00018645547
0.81689775 -0.56381118 1.6165849 -0.062357064 0.85514188 -0.51462996 0.00016329953
0.81557095 -0.54956466 1.6404686 -0.058670543 0.84722346 -0.52798694 0.00013988433
0.81582677 -0.53913093 1.6563237 -0.058634963 0.8472411 -0.52796257 0.00013954991
0.8500483 -0.59399027 1.5595783 -0.069658563 0.86898446 -0.48991194 0.00027119965
0.84707332 -0.58322245 1.5791111 -0.067989938 0.86176366 -0.50273329 0.00019676531
0.8685047 -0.58069128 1.5801238 -0.067786276 0.86200643 -0.50234443 0.00023710213
0.84872282 -0.5743258 1.5945143 -0.067989938 0.86176366 -0.50273329 0.00019676531
0.87153423 -0.57312703 1.594 -0.067786276 0.86200643 -0.50234443 0.00023710213
0.84734315 -0.56225443 1.6152238 -0.068375237 0.85445076 -0.51501334 0.00016290747
0.84666634 -0.54879856 1.638052 -0.062516265 0.84814245 -0.52606666 0.00014484709
0.84796304 -0.53852308 1.653646 -0.062339976 0.84828728 -0.52585399 0.00014132625
0.87715608 -0.55882251 1.6169382 -0.07147298 0.85475075 -0.51409417 0.0001834398
0.87959337 -0.54665941 1.6355875 -0.069935463 0.84980971 -0.52242947 0.00012154143
0.87981641 -0.53710908 1.6518674 -0.070359223 0.84976363 -0.52244747 0.00011149103
0.78379667 -0.52702481 1.6791805 -0.07052765 0.84673911 -0.5273127 0.00015440944
0.78208464 -0.51492453 1.699568 -0.07157623 0.85428256 -0.51485747 0.00011009097
0.8154009 -0.52459735 1.6787782 -0.05786594 0.84768224 -0.52733892 0.00014350549
0.81298316 -0.51382428 1.6969714 -0.059318177 0.8538875 -0.51706624 0.00015125795
0.84723216 -0.5229916 1.6789944 -0.057028219 0.84899759 -0.52531028 0.00015047556
0.84498042 -0.51292396 1.6961111 -0.050958071 0.85444361 -0.51703906 0.00013831363
0.87929434 -0.52178341 1.677164 -0.069605917 0.85042119 -0.52147758 0.00011681087
0.8973726 -0.54990524 1.6286666 -0.067981981 0.85184801 -0.51935863 0.00029149052
0.89832115 -0.54686594 1.6338667 -0.072255321 0.85050905 -0.52097368 0.00017727025
0.9026522 -0.53521991 1.6514546 -0.073458865 0.85035968 -0.52104914 0.00015117014
0.90858483 -0.51917881 1.6772535 -0.073888429 0.85220075 -0.5179714 0.00012609245
0.70099628 -0.48179016 1.7644666 -0.084375091 0.853212 -0.51469421 0.00020929371
0.69489598 -0.47289953 1.7807714 -0.08415965 0.85340029 -0.51441723 0.00020110716
0.73001093 -0.50481284 1.7219875 -0.056859147 0.8558808 -0.51403803 0.00019182402
0.75226539 -0.50620735 1.7177936 -0.065807141 0.8546012 -0.51509821 0.00012871872
0.72422016 -0.4913913 1.7455839 -0.11313029 0.83227128 -0.54270256 0.0035031918
0.71434748 -0.48208514 1.7620286 -0.12296452 0.83026081 -0.54364204 0.0034024506
0.72027987 -0.47254258 1.7775729 -0.38402453 0.66623533 -0.63926178 0.053457242
0.75115114 -0.49082348 1.7435627 -0.078741528 0.83806586 -0.53985685 0.0030540738
0.75238729 -0.46695101 1.7774547 -0.18470508 0.71407503 -0.67526358 0.067552485
0.75264716 -0.43164742 1.7744832 -0.34277123 0.17845643 -0.92231297 0.12448449
0.75700766 -0.40048295 1.7771314 -0.67420775 -0.16980167 -0.71875679 0.072376728
0.73416096 -0.36784795 1.7898 -0.58391774 -0.16165458 -0.79555506 0.019449536
0.75093305 -0.37384501 1.7819651 -0.67392498 -0.22737189 -0.70294178 0.030776719
0.60326129 -0.40137643 1.9112909 -0.086084388 0.84859931 -0.52198535 0.0012463314
0.6310246 -0.42184812 1.8726 -0.052845761 0.85904837 -0.50915933 0.00027005011
0.62952423 -0.41438949 1.8868667 -0.052883301 0.85917956 -0.50893402 0.00028406587
0.62414986 -0.40420586 1.9040328 -0.09164457 0.8405658 -0.5339011 0.0024010944
0.59806353 -0.38946006 1.9315517 -0.09490671 0.82029504 -0.56401134 0.0034551611
0.62218505 -0.38971844 1.9293476 -0.10406937 0.81633741 -0.56812215 0.0033839794
0.51912785 -0.31598434 1.8825231 -0.0075815381 0.32818767 -0.9445821 0.063300438
0.52748013 -0.30128494 1.8966831 -0.083292224 0.5464918 -0.83331215 0.076548487
0.52659035 -0.2581729 1.8868999 -0.022876693 -0.16199481 -0.98652637 0.081559598
0.52679908 -0.27375749 1.8986489 -0.1962076 -0.15223871 -0.96867228 0.14186868
0.57437634 -0.31613904 1.8857 0.011109834 0.38591558 -0.92246723 0.045029875
0.55956244 -0.30230674 1.8986924 0.1350266 0.56530571 -0.81375504 0.056379527
0.55712444 -0.27546307 1.9105544 0.24933344 0.085681424 -0.96461987 0.12270624
0.63627243 -0.33485278 1.85144 -0.44809377 0.34515372 -0.82467014 0.0055830642
0.60010862 -0.32500592 1.8779857 -0.26047775 0.51473916 -0.81682003 0.0066059059
0.62211561 -0.32765478 1.8626095 -0.44115004 0.35696775 -0.82338369 0.0051463279
0.59167194 -0.31439033 1.8809428 -0.31933731 0.38657087 -0.86520898 0.013640893
0.58106524 -0.30481979 1.8920715 -0.050543655 0.682886 -0.72877437 0.026756339
0.61307764 -0.31649357 1.87016 -0.44115004 0.35696775 -0.82338369 0.0051463279
0.56915122 -0.36288139 1.9737407 -0.10144725 0.78923202 -0.60565776 0.010417636
0.57139212 -0.35092047 1.9787999 -0.12095287 0.73075843 -0.67183518 0.015667176
0.57110935 -0.26844725 1.9266572 0.41168633 0.42874116 -0.80417371 0.067065418
0.59519118 -0.38094249 1.9457999 -0.089424707 0.81840521 -0.56764084 0.0039712037
0.59164518 -0.36621007 1.9668095 -0.10985597 0.7835598 -0.61152732 0.0065375678
0.58144456 -0.35068402 1.9774667 -0.16068795 0.70976543 -0.68586618 0.0083294651
0.62592095 -0.37765124 1.9452976 -0.10276902 0.81497037 -0.57031727 0.0035373329
0.61544621 -0.36747214 1.9581448 -0.13820915 0.77400005 -0.6179176 0.0058723851
0.58167088 -0.26818815 1.94028 0.48898527 0.53716052 -0.68727869 0.028291319
0.59745032 -0.26200771 1.9607249 0.52201748 0.52028078 -0.67587399 0.01967191
0.60993272 -0.25957513 1.9646 0.24832942 0.74930775 -0.61389774 0.022781961
0.66656178 -0.45456806 1.8155692 -0.071630538 0.85292423 -0.51709706 0.00012970218
0.66649568 -0.44889024 1.82445 -0.057626858 0.85387021 -0.517286 0.00014498446
0.68758988 -0.45805648 1.8067902 -0.077531099 0.85364026 -0.51506042 0.00018938356
0.67435694 -0.44877952 1.824 -0.064362526 0.85789382 -0.50978005 0.00036121657
0.65963823 -0.4380213 1.8432705 -0.052350953 0.85790575 -0.51113313 0.0001971606
0.69283378 -0.44827339 1.8219429 -0.077698693 0.85326493 -0.51565677 0.00020170522
0.68730938 -0.43770567 1.8403143 -0.070024393 0.85641891 -0.51151079 0.00078468013
0.65431458 -0.42391944 1.8666611 -0.068255872 0.8518936 -0.51924795 0.0011786332
0.65687788 -0.41496113 1.8832588 -0.076859176 0.84680963 -0.52631372 0.0022042119
0.65555757 -0.40269157 1.9029506 -0.087967157 0.83504575 -0.5431025 0.0036084871
0.68692756 -0.42262086 1.8657959 -0.077546448 0.84656954 -0.52659911 0.0022820996
0.68837202 -0.41388085 1.8822461 -0.079245217 0.84281349 -0.53233975 0.0030198884
0.68754637 -0.39886126 1.9036709 -0.083686769 0.82263172 -0.56238204 0.0052020964
0.71950281 -0.45634922 1.804064 -0.34326491 0.79445374 -0.50101143 0.054315519
0.73930228 -0.45495689 1.7960875 -0.26740503 0.79590839 -0.54316145 0.087648533
0.72288632 -0.44677082 1.8199124 -0.55645353 0.64584553 -0.52272648 0.093228489
0.7192378 -0.43576363 1.839009 -0.22899826 0.8570314 -0.4615809 0.02292941
0.74310774 -0.43672198 1.8070818 -0.59066576 0.50021684 -0.63316435 0.14995493
0.74754852 -0.42847106 1.8397359 -0.29476511 0.83917016 -0.45706344 0.036310263
0.7549144 -0.40723708 1.8022667 -0.8197487 -0.24746643 -0.51650017 0.092894524
0.75987434 -0.41259772 1.8393778 -0.9237265 -0.30902779 -0.22634311 0.169599
0.7191779 -0.42149031 1.8659512 -0.13704476 0.83962339 -0.52559614 0.0068867854
0.72284991 -0.40935722 1.8818572 -0.13507284 0.83523113 -0.53305191 0.0076584881
0.71265543 -0.3993167 1.8949555 -0.13044049 0.7937417 -0.59410387 0.0084251361
0.7454524 -0.4204897 1.862096 -0.20588382 0.82489043 -0.52646714 0.014676443
0.74576944 -0.40951619 1.8712821 -0.20588382 0.82489043 -0.52646714 0.014676443
0.65547836 -0.3889133 1.925858 -0.10790449 0.807886 -0.57937628 0.0054997392
0.67657357 -0.38644731 1.9214667 -0.14302883 0.77100879 -0.62055475 0.0098152459
0.65591067 -0.33782962 1.8370678 -0.38192064 0.44887513 -0.80786616 0.0035128512
0.69199771 -0.35507047 1.8147333 -0.28018668 0.51675868 -0.80898446 0.0015722084
0.68959999 -0.34788328 1.8188968 -0.28018668 0.51675868 -0.80898446 0.0015722084
0.67809564 -0.34104815 1.8264 -0.2769058 0.52336854 -0.80585891 0.0017176341
0.64045775 -0.32587361 1.8559999 -0.47795495 -0.82216972 -0.30918601 0.017879732
0.68816304 -0.3825115 1.910275 -0.11596926 0.78558946 -0.60778314 0.024311241
0.71963859 -0.35966605 1.801632 -0.6714111 -0.54968488 -0.49704498 0.033591293
0.70953149 -0.34894332 1.8124 -0.31532937 0.44833019 -0.83640146 0.00087388727
0.73629397 -0.35943165 1.795 -0.77098513 -0.5237518 -0.36230651 0.051827095
0.65368396 -0.37815803 1.9343022 -0.10790449 0.807886 -0.57937628 0.0054997392
0.67595053 -0.38064954 1.9220999 -0.14302883 0.77100879 -0.62055475 0.0098152459
0.6924395 -0.32412803 2.0328631 -0.034582332 0.8394295 -0.54236716 0.0016317642
0.67040664 -0.3161687 2.0472 -0.016009007 0.82298273 -0.56784081 0.0051707164
0.68890959 -0.31604281 2.04268 -0.034176316 0.83811468 -0.54442239 0.0017848589
0.72854316 -0.3355892 2.00948 -0.076897658 0.83907646 -0.53855121 0.00067046471
0.71943897 -0.32598683 2.0252097 -0.063881792 0.84470493 -0.5314064 0.00049471913
0.75296295 -0.33797178 2.0006561 -0.069620565 0.85038364 -0.52153683 0.00038710082
0.74931353 -0.32454208 2.0228446 -0.065553412 0.84964466 -0.52326548 0.00033414914
0.71999085 -0.3152653 2.0413852 -0.12301479 0.80348122 -0.58248204 0.010639532
0.75228775 -0.31513467 2.0377576 -0.13353355 0.78393489 -0.60631251 0.020400565
0.52708191 -0.16706422 1.5617793 0.0088189719 -0.057768982 -0.99829102 0.0033167449
0.52796942 -0.14471941 1.558862 -0.010976636 0.28270441 -0.95914429 0.014551595
0.55612546 -0.16560182 1.5629749 0.077665575 -0.065871738 -0.99480098 0.0025345236
0.56021476 -0.14407293 1.5604677 0.035111155 0.28029597 -0.95927125 0.012530218
0.58191425 -0.16293095 1.56576 0.13509473 -0.064698815 -0.98871809 0.0017537965
0.59129268 -0.14305213 1.5643408 0.068230547 0.28675038 -0.95557249 0.0094021494
0.61168361 -0.13931687 1.56696 0.090773813 0.29870245 -0.95001948 0.0054505188
0.62476987 -0.13645746 1.5698615 0.090773813 0.29870245 -0.95001948 0.0054505188
0.52765208 -0.12432932 1.5642694 -0.0072594131 0.47621822 -0.87929714 0.0091100968
0.52739161 -0.10715721 1.5757242 -0.019673174 0.57127351 -0.82052398 0.012081225
0.52726227 -0.088864274 1.5921 -0.028487721 0.6988315 -0.71471882 0.0025826092
0.55850708 -0.12419379 1.5645951 0.037765358 0.45279518 -0.89081442 0.0098951198
0.55932075 -0.10734593 1.5753281 0.017627148 0.54716271 -0.83684063 0.012930963
0.55960846 -0.087603346 1.5918647 -0.0079948939 0.68480718 -0.72868049 0.0030416285
0.52761585 -0.072837107 1.6112 -0.036365371 0.76213551 -0.64639539 0.0022548803
0.55881107 -0.071518503 1.6101633 -0.015353187 0.74928808 -0.66206622 0.0033399919
0.52806222 -0.060767241 1.6277478 -0.040819459 0.79920757 -0.59966737 0.00054317457
